# .PCD v0.7 - Point Cloud Data file format
VERSION 0.7
FIELDS x y z intensity ring
SIZE 4 4 4 4 2
TYPE F F F F U
COUNT 1 1 1 1 1
WIDTH 1227
HEIGHT 1
VIEWPOINT 0 0 0 1 0 0 0
POINTS 1227
DATA ascii
-4.237257 9.2582407 1.5558177 143 12
-4.2065372 9.2722378 1.5558177 141 12
-4.1753583 9.2809019 1.5550615 138 12
-4.1415515 9.287919 1.5539271 137 12
-4.1099873 9.2911224 1.5524144 137 12
-4.0778093 9.2971954 1.5512799 137 12
-4.0466156 9.3054237 1.5505236 137 12
-4.0180135 9.3151188 1.5501454 137 12
-3.9903493 9.3270044 1.5501454 137 12
-3.959403 9.3401823 1.5501454 137 12
-3.9309957 9.3548546 1.5505236 137 12
-3.9044275 9.3740063 1.551658 137 12
-3.8759017 9.3885107 1.5520363 137 12
-3.8501182 9.4097948 1.5535488 134 12
-3.8223915 9.426425 1.5543051 128 12
-1.2261618 3.0311747 0.49812654 148 12
-1.2166337 3.0350118 0.49812654 179 12
-1.207092 3.0388191 0.49812654 187 12
-1.1993345 3.0472014 0.49888286 192 12
-1.1906462 3.0532596 0.49926102 174 12
-1.1854609 3.0685265 0.50115174 192 12
-1.1779065 3.0793724 0.50228626 212 12
-1.1708294 3.0899999 0.50342065 228 12
-1.1619759 3.0959799 0.50379884 240 12
-1.1530977 3.1019337 0.50417697 236 12
-1.1425002 3.1032197 0.50379884 236 12
-1.1302298 3.0998197 0.50266433 208 12
-1.1188238 3.0987008 0.50190806 208 12
-1.1074343 3.0975409 0.50115174 199 12
-1.0960646 3.0963397 0.50039548 27 12
-1.0855265 3.0974305 0.50001729 194 12
-1.075528 3.0983007 0.49963915 198 12
-1.0647348 3.0968015 0.49888286 208 12
-1.0534247 3.0954466 0.49812654 224 12
-1.042132 3.0940526 0.49737024 236 12
-1.0287776 3.0881004 0.49585763 55 12
-1.0183029 3.0889685 0.49547949 198 12
-1.0063193 3.0850961 0.49434504 193 12
-0.99587041 3.0858884 0.49396688 212 12
-0.98542792 3.0866449 0.49358872 228 12
-0.97646141 3.0920846 0.49396688 240 12
-0.96601444 3.0927753 0.49358872 240 12
-0.956294 3.0957949 0.49358872 236 12
-0.94656265 3.0987842 0.49358872 236 12
-0.93611705 3.0993741 0.49321055 244 12
-0.92637604 3.1022997 0.49321055 240 12
-0.91593111 3.1028237 0.49283242 236 12
-0.904957 3.103467 0.49245426 236 12
-0.89452422 3.1039188 0.4920761 244 12
-0.88476908 3.1067135 0.4920761 240 12
-0.87500387 3.109478 0.4920761 240 12
-0.86457765 3.109828 0.49169794 232 12
-0.85545421 3.114912 0.4920761 216 12
-0.84492898 3.1126626 0.49131984 232 12
-0.83505458 3.1127687 0.49094167 240 12
-0.82402134 3.1105947 0.49018535 236 12
-0.81362861 3.1107752 0.48980722 208 12
-0.80263329 3.108526 0.48905089 224 12
-0.79286271 3.1110325 0.48905089 208 12
-0.78249127 3.111109 0.48867273 224 12
-0.77212721 3.1111512 0.48829457 199 12
-0.76234853 3.1135619 0.48829457 193 12
-2.3463509 9.8163271 1.5422043 172 12
-2.3171954 9.8308678 1.5433388 160 12
-2.2879648 9.8453236 1.5444732 155 12
-2.2558582 9.8552637 1.5448513 154 12
-2.2259638 9.8671255 1.5456076 153 12
-2.1949565 9.8740692 1.5456076 153 12
-2.1633964 9.8785028 1.5452296 153 12
-2.131835 9.8828335 1.5448513 153 12
-2.1007738 9.8894835 1.5448513 153 12
-2.0696967 9.8960333 1.5448513 151 12
-2.0390947 9.9049082 1.5452296 151 12
-2.0089457 9.91611 1.5459858 151 12
-1.9787366 9.9272223 1.5467422 150 12
-1.9480143 9.9358139 1.5471202 150 12
-1.9216603 9.9484949 1.5482546 150 12
-1.8913155 9.9593401 1.549011 150 12
-1.8613722 9.9725208 1.5501454 150 12
-1.8304738 9.980752 1.5505236 150 12
-1.799542 9.9888859 1.5509018 147 12
-1.7668705 9.9871883 1.5497673 139 12
-1.7346457 9.9878197 1.549011 139 12
-1.7002796 9.9862061 1.5478766 141 12
-1.6680902 9.9866228 1.5471202 158 12
-1.6355196 9.9844971 1.5459858 157 12
-1.6041416 9.9895859 1.5459858 157 12
-1.5719893 9.9896927 1.5452296 156 12
-1.5402261 9.9921389 1.5448513 156 12
-1.5084631 9.9944839 1.5444732 156 12
-1.4766911 9.9967289 1.5440949 156 12
-1.4449292 9.9988728 1.5437169 156 12
-1.4135097 10.003364 1.5437169 156 12
-1.3806701 10.010442 1.5440949 156 12
-1.3495375 10.017181 1.5444732 156 12
-1.3183776 10.023822 1.5448513 156 12
-1.2875102 10.032815 1.5456076 156 12
-1.2586521 10.043949 1.5467422 156 12
-1.2288426 10.04764 1.5467422 156 12
-1.1993219 10.053695 1.5471202 156 12
-1.1651236 10.050253 1.5459858 146 12
-1.1327186 10.046495 1.5448513 137 12
-1.0995542 10.035264 1.5425825 132 12
-1.0675066 10.033753 1.5418261 128 12
-1.0347263 10.024765 1.5399355 123 12
-1.0029764 10.025507 1.5395572 117 12
-0.97123981 10.02615 1.5391791 100 12
-0.9377647 10.026853 1.5388008 99 12
-0.90626013 10.02975 1.5388008 100 12
-0.87495548 10.03501 1.5391791 98 12
-0.84363139 10.040172 1.5395572 97 12
-0.81227875 10.045237 1.5399355 94 12
-0.78109604 10.052666 1.5406916 93 12
-0.74987471 10.059999 1.5414479 92 12
-0.71861511 10.067235 1.5422043 91 12
-0.68730778 10.074376 1.5429605 92 12
-0.65581453 10.078952 1.5433388 90 12
-0.62504929 10.095761 1.5456076 89 12
-0.59404671 10.110009 1.5474983 82 12
-0.56525856 10.133936 1.5509018 76 12
-0.53594464 10.150378 1.5531707 123 12
-0.5030089 10.166909 1.5554396 139 12
-0.47117129 10.170909 1.5558177 139 12
-0.43733814 10.169946 1.5554396 157 12
-0.40677699 10.161321 1.5539271 157 12
-0.37458906 10.15514 1.5527925 157 12
-0.34251973 10.151326 1.5520363 156 12
-0.31055576 10.149881 1.551658 156 12
-0.27860433 10.148337 1.5512799 156 12
-0.2466656 10.146691 1.5509018 156 12
-0.21473034 10.144946 1.5505236 156 12
-0.18285996 10.145571 1.5505236 156 12
-0.15098572 10.146095 1.5505236 156 12
-0.11737081 10.14901 1.5509018 156 12
-0.085499816 10.151801 1.5512799 156 12
-0.053639602 10.159432 1.5524144 156 12
-0.021724848 10.164494 1.5531707 157 12
0.010226683 10.174397 1.5546833 170 12
0.042201418 10.176785 1.5550615 159 12
0.074191257 10.179074 1.5554396 138 12
0.10436895 10.176338 1.5550615 156 12
0.13449082 10.171041 1.5543051 156 12
0.164543 10.163186 1.5531707 156 12
0.19818781 10.160112 1.5527925 156 12
0.22998813 10.154499 1.5520363 156 12
0.26196235 10.156197 1.5524144 156 12
0.29393995 10.157794 1.5527925 156 12
0.32593009 10.15929 1.5531707 156 12
0.35802224 10.163156 1.5539271 156 12
0.3901419 10.166919 1.5546833 156 12
0.42229357 10.170581 1.5554396 156 12
0.45447212 10.174142 1.556196 157 12
0.48667228 10.1776 1.5569521 157 12
0.51889879 10.180957 1.5577085 157 12
0.55129427 10.18668 1.558843 157 12
0.58550376 10.192195 1.5599774 157 12
0.61767238 10.192772 1.5603555 157 12
0.65016866 10.19818 1.5614901 156 12
0.68186671 10.191156 1.5607338 9 12
0.71388263 10.188963 1.5607338 119 12
0.74515414 10.176813 1.5592211 84 12
0.77711987 10.174422 1.5592211 82 12
0.80651385 10.162217 1.5577085 85 12
0.83468223 10.157463 1.5573304 85 12
0.86503255 10.157404 1.5577085 84 12
0.89693677 10.154636 1.5577085 89 12
0.92929262 10.15669 1.5584648 9 12
0.96095878 10.15126 1.5580868 87 12
0.99284315 10.148191 1.5580868 87 12
1.0237137 10.135188 1.5565741 86 12
1.0555472 10.131923 1.5565741 86 12
1.0865808 10.121185 1.5554396 88 12
1.120685 10.122439 1.556196 86 12
1.1530427 10.123777 1.5569521 86 12
1.18687 10.137285 1.5595992 85 12
1.2207985 10.15068 1.5622464 85 12
1.2554337 10.168864 1.5656497 105 12
1.2898771 10.18448 1.5686749 123 12
1.3241102 10.19753 1.571322 139 12
1.3564669 10.19577 1.5717002 157 12
1.388835 10.193905 1.5720782 157 12
1.4198195 10.182151 1.5709438 157 12
1.451449 10.175194 1.5705657 46 12
0.57327503 3.9724705 0.61195028 121 12
0.58538347 3.9682062 0.61157215 188 12
0.59678513 3.9640095 0.61119395 236 12
0.60923308 3.962115 0.61119395 21 12
1.601343 10.090133 1.5611118 35 12
1.6354204 10.099688 1.5633808 197 12
1.6709261 10.106398 1.5652715 191 12
1.7043262 10.110844 1.5667841 173 12
1.7381899 10.117614 1.5686749 165 12
1.3626993 7.8000264 1.2094305 168 12
1.3741053 7.7227345 1.1980859 178 12
1.3726113 7.5773797 1.1761532 186 12
1.3702142 7.4321127 1.1542203 186 12
1.3802364 7.3573542 1.1432539 188 12
1.3454496 7.0520673 1.0963631 199 12
1.363807 7.0284028 1.0933378 195 12
1.3675591 6.9319811 1.078968 193 12
1.3746387 6.8549843 1.0676235 216 12
1.3953669 6.8407059 1.0661108 224 12
1.4173597 6.8387074 1.0664891 228 12
1.4378099 6.8293862 1.0657327 228 12
1.4608215 6.8320818 1.0668671 220 12
1.4833329 6.8322878 1.0676235 228 12
1.50586 6.8324194 1.0683798 220 12
1.5289458 6.834888 1.0695143 228 12
1.5515131 6.834867 1.0702705 220 12
1.5734553 6.8374572 1.0714051 224 12
1.5948721 6.8375697 1.0721613 224 12
1.6180619 6.8397374 1.0732957 224 12
1.6401205 6.8370228 1.0736738 200 12
0.76637989 3.1761613 0.49774837 220 12
0.7751646 3.1689408 0.49699208 220 12
0.78451282 3.1640935 0.49661392 200 12
0.79505903 3.1640081 0.49699208 220 12
0.80375862 3.1567092 0.49623576 199 12
0.81304729 3.151778 0.49585763 212 12
0.82231283 3.1468189 0.49547949 228 12
0.82889777 3.1297548 0.49321055 220 12
0.83872551 3.1271353 0.49321055 197 12
0.84526581 3.1125722 0.49131984 204 12
0.85570568 3.1122811 0.49169794 208 12
0.86681998 3.1143346 0.49245426 198 12
0.87727737 3.1139727 0.49283242 208 12
0.88842666 3.1159496 0.49358872 212 12
0.90167809 3.1250031 0.49547949 197 12
0.91078997 3.1197853 0.49510133 200 12
0.92129546 3.1192758 0.49547949 220 12
0.93466306 3.1281936 0.49737024 204 12
0.94032729 3.1135905 0.49547949 220 12
0.95029467 3.113148 0.49585763 199 12
0.96007103 3.1101468 0.49585763 204 12
0.97058231 3.1094713 0.49623576 199 12
0.97658694 3.0946367 0.49434504 212 12
0.98782402 3.0962567 0.49510133 228 12
0.99194622 3.0741706 0.4920761 24 12
1.0008273 3.068692 0.49169794 199 12
1.0057738 3.0514665 0.48942906 212 12
1.0153548 3.0482919 0.48942906 204 12
1.02174 3.0357294 0.48791644 220 12
1.0368975 3.0488629 0.49056351 232 12
1.050527 3.0572619 0.49245426 244 12
1.0707666 3.0842593 0.49737024 236 12
1.090359 3.1088307 0.50190806 199 12
1.107617 3.1263297 0.50531143 196 12
1.1207955 3.1321301 0.50682408 199 12
1.1297837 3.1262722 0.50644588 216 12
1.1332989 3.1039608 0.50342065 204 12
1.1335571 3.0749114 0.49926102 220 12
1.1336421 3.0458913 0.49510133 228 12
1.1326764 3.014591 0.49056351 200 12
1.1327752 2.9881401 0.48678195 220 12
1.132733 2.9617143 0.48300046 220 12
1.1348467 2.9397233 0.47997525 199 12
1.138644 2.9223471 0.47770631 195 12
1.1423436 2.9049764 0.47543743 198 12
1.1615019 2.9000316 0.47581556 193 12
1.1668698 2.8872168 0.47430295 216 12
1.1916295 2.8958018 0.47695005 199 12
1.1715825 2.8211925 0.46522731 236 12
1.1708115 2.794739 0.46144581 199 12
1.1708519 2.7705922 0.45804244 199 12
1.1775947 2.762361 0.45728612 216 12
1.177405 2.7382486 0.45388275 198 12
1.1820356 2.7254817 0.45237014 198 12
1.1845986 2.7081928 0.45010126 63 12
1.1890777 2.6954288 0.44858864 194 12
1.1914612 2.6781554 0.4463197 39 12
1.1957893 2.6653955 0.44480711 191 12
1.200048 2.6526351 0.4432945 63 12
1.0693817 2.3482871 0.39262211 154 12
1.0784223 2.3495872 0.39337844 168 12
1.2381655 2.4481165 0.41758016 195 12
1.2447189 2.4420178 0.41720203 198 12
1.2600381 2.4341488 0.41720203 195 12
1.2665267 2.4279921 0.41682386 220 12
1.281526 2.4368737 0.41909274 196 12
1.2880092 2.4306571 0.41871464 199 12
1.2991565 2.4331248 0.41984907 216 12
1.3020754 2.4203453 0.41833648 197 12
1.3045088 2.4077985 0.41682386 204 12
1.2961427 2.3757792 0.41190788 197 12
1.2959952 2.3589566 0.40963894 204 12
1.2889318 2.3289874 0.40510112 220 12
1.2853315 2.3055458 0.40169778 198 12
1.2925677 2.3014967 0.40169778 208 12
1.3061688 2.2909603 0.40131962 199 12
1.3257579 2.308223 0.40510112 196 12
1.3280177 2.2955108 0.40358853 195 12
1.3189316 2.2636383 0.39867255 198 12
1.3146977 2.24035 0.39526922 198 12
1.3255297 2.2425745 0.39640364 208 12
1.3223828 2.2214551 0.39337844 196 12
1.3280759 2.2151754 0.39300027 199 12
1.3298824 2.2025523 0.39148766 194 12
1.2928331 2.1267607 0.37863049 220 12
1.3037755 2.1287677 0.37976494 197 12
1.3091536 2.1225631 0.37938681 200 12
1.2991045 2.0909996 0.37447083 220 12
1.3079447 2.0913136 0.37522712 199 12
1.3264604 2.0089161 0.36615148 190 12
1.3300104 2.0006356 0.36539519 204 12
1.4725289 2.0553749 0.38468093 195 12
1.4789784 2.050739 0.38468093 220 12
1.2691544 1.6958824 0.3219077 193 12
1.2954365 1.7194121 0.32720184 63 12
1.6045128 2.1115253 0.40358853 195 12
1.6609523 2.1710429 0.41606754 199 12
1.2630905 1.5818878 0.30753791 153 12
1.2789651 1.5913357 0.31018499 181 12
1.2909477 1.5656484 0.30829424 193 12
1.2942712 1.5596923 0.30791607 197 12
1.305544 1.5631702 0.30942869 198 12
1.3139189 1.5625992 0.31018499 208 12
1.3348902 1.5772395 0.31396648 199 12
1.3514 1.5859125 0.31661358 196 12
1.3665938 1.5956843 0.31926063 196 12
1.3862096 1.608153 0.32266402 195 12
2.0728652 2.3073866 0.47241223 191 12
2.0850971 2.3063431 0.47354665 179 12
1.2634981 1.2707652 0.27199164 176 12
1.2833118 1.2824148 0.27539501 193 12
1.2838057 1.2749158 0.27463868 196 12
1.2878045 1.2708766 0.27463868 191 12
1.2616829 1.1622132 0.26026893 180 12
1.2746964 1.166307 0.26215968 187 12
2.1626332 1.7239122 0.42098352 192 12
2.1719265 1.720161 0.42173985 196 12
1.3537238 1.0169586 0.25686556 190 12
1.358902 1.0141661 0.25724372 183 12
1.3620816 1.0098916 0.25724372 190 12
1.3672466 1.0070603 0.25762185 186 12
1.3704034 1.0027602 0.25762185 174 12
1.3735467 0.99845028 0.25762185 153 12
1.3726511 0.99126256 0.25686556 153 12
1.3777763 0.98837233 0.25724372 34 12
1.3748105 0.97977495 0.25610924 10 12
1.3780488 0.97521329 0.25610924 85 12
1.3750143 0.96665406 0.25497478 123 12
1.3821149 0.96513289 0.25573108 23 12
1.381061 0.95799541 0.25497478 7 12
1.390196 0.95781827 0.25610924 18 12
1.393198 0.95344639 0.25610924 123 12
1.3961864 0.94906515 0.25610924 63 12
1.3991617 0.94467312 0.25610924 25 12
1.4000609 0.93891025 0.25573108 8 12
1.4030004 0.93451035 0.25573108 103 12
1.4057672 0.93034309 0.25573108 94 12
1.4147452 0.93019831 0.25686556 69 12
1.4135048 0.92307359 0.25610924 13 12
1.4205624 0.92129016 0.25686556 112 12
1.4130179 0.91020048 0.25497478 63 12
1.4137799 0.90443915 0.25459665 69 12
1.4082357 0.89474791 0.25308403 13 12
1.4132942 0.89137709 0.25346217 123 12
1.4139848 0.88563454 0.25308403 139 12
1.4209743 0.8837707 0.25384033 118 12
1.4216323 0.87801784 0.25346217 14 12
1.4264987 0.8748256 0.25384033 106 12
1.4228823 0.86652619 0.25270587 72 12
1.4234751 0.86078614 0.25232774 79 12
1.4155366 0.85002029 0.25043696 36 12
1.4160705 0.8443166 0.25005883 82 12
1.4081842 0.83339745 0.24816805 123 12
1.4065182 0.82649344 0.24741174 163 12
1.3983933 0.81591648 0.24552098 152 12
1.3988028 0.81029552 0.24514283 44 12
1.3948894 0.8022455 0.24400838 142 12
1.3973997 0.79786271 0.24400838 130 12
1.4019191 0.79491681 0.24438654 126 12
1.4085976 0.79314625 0.24514283 63 12
1.4219093 0.79467124 0.24703361 123 12
1.4309058 0.79375279 0.24816805 139 12
1.4507747 0.79867202 0.25119326 157 12
1.4619826 0.79879171 0.25270587 183 12
2.0325747 1.0891871 0.35064724 200 12
2.0337987 1.0816467 0.35026911 220 12
2.0393789 1.0763938 0.35064724 228 12
2.0363507 1.0662202 0.34951282 216 12
2.0396917 1.0598158 0.34951282 204 12
2.0386071 1.0511591 0.34875649 220 12
2.0418992 1.0447499 0.34875649 232 12
2.045171 1.0383303 0.34875649 232 12
1.4146457 0.6568687 0.23644534 178 12
1.4167022 0.65242147 0.23644534 194 12
1.8449628 0.83898169 0.30791607 198 12
1.8611404 0.83920151 0.31018499 208 12
1.8639106 0.83302844 0.31018499 200 12
1.5372857 0.65475672 0.25346217 179 12
1.5347694 0.64803135 0.25270587 195 12
2.0511293 0.85446441 0.33779007 198 12
2.0629606 0.85174102 0.33930269 208 12
2.1169939 0.85009551 0.34686571 199 12
2.1195078 0.84380889 0.34686571 216 12
2.1266057 0.83931315 0.34762204 216 12
2.1290884 0.8329969 0.34762204 232 12
2.1412134 0.82222807 0.34875649 204 12
2.1368444 0.81289428 0.34762204 220 12
2.1370711 0.80531627 0.34724388 228 12
2.1349518 0.79689318 0.34648758 20 12
2.1397665 0.79102808 0.34686571 195 12
1.4029868 0.51771677 0.22661339 38 12
1.406935 0.51413554 0.22699153 54 12
1.4156202 0.51194042 0.228126 18 12
1.4218891 0.50911897 0.22888231 45 12
1.4305735 0.50682849 0.23001675 135 12
1.4390848 0.50498509 0.23115122 137 12
1.4453448 0.50204903 0.23190752 125 12
1.4516004 0.49907866 0.23266383 146 12
1.4601965 0.4968538 0.23379827 127 12
1.4664453 0.493808 0.23455457 130 12
1.4703394 0.48996335 0.23493274 74 12
1.4765763 0.48685548 0.23568904 105 12
1.4757439 0.48146415 0.23531088 123 12
1.4725348 0.47534132 0.23455457 139 12
1.4716614 0.46997827 0.23417643 63 12
1.4731284 0.46535584 0.23417643 39 12
1.4721388 0.46026272 0.23379827 117 12
1.4758663 0.45660213 0.23417643 123 12
1.4772935 0.4519636 0.23417643 139 12
1.473965 0.44592348 0.23342013 43 12
1.4777311 0.44198206 0.23379827 151 12
1.4767377 0.43665338 0.23342013 133 12
1.4781022 0.4320122 0.23342013 39 12
1.4794533 0.42736423 0.23342013 37 12
1.4808605 0.42245939 0.23342013 53 12
1.4797976 0.41715056 0.23304197 63 12
1.481101 0.41249913 0.23304197 123 12
1.4800024 0.40720534 0.23266383 163 12
1.4812744 0.40255406 0.23266383 63 12
1.4873142 0.39914548 0.23342013 61 12
1.4861676 0.39385474 0.23304197 120 12
1.4945831 0.39100903 0.23417643 117 12
1.493407 0.38571125 0.23379827 123 12
1.4946113 0.38101795 0.23379827 163 12
1.495801 0.37632021 0.23379827 63 12
1.504185 0.37335131 0.23493274 123 12
1.5078174 0.36893505 0.23531088 145 12
1.5209379 0.36727265 0.23720165 128 12
1.5316509 0.3649849 0.23871425 123 12
1.5423663 0.36263177 0.24022686 139 12
1.5507319 0.35940763 0.24136132 135 12
1.5542662 0.355068 0.24173947 121 12
1.5602031 0.35123569 0.24249578 117 12
1.5588826 0.34581432 0.24211763 140 12
2.018302 0.4311235 0.31358835 174 12
1.9955078 0.41947985 0.30980682 171 12
1.5797329 0.31893107 0.24438654 165 12
1.6025715 0.318149 0.2477899 176 12
1.6132774 0.31494164 0.24930252 184 12
1.6166887 0.3103216 0.24968065 190 12
1.6200871 0.30568328 0.25005883 193 12
1.6283377 0.30189431 0.25119326 194 12
1.6365807 0.29805654 0.25232774 196 12
1.6472509 0.29458964 0.25384033 196 12
1.6554792 0.29064536 0.25497478 192 12
1.6613085 0.28596419 0.25573108 196 12
1.662151 0.28103063 0.25573108 192 12
1.6629759 0.2761015 0.25573108 192 12
1.6637889 0.27116323 0.25573108 195 12
1.6695182 0.26668289 0.2564874 193 12
1.6727917 0.26180306 0.25686556 195 12
1.6833864 0.25797987 0.25837815 196 12
1.6866355 0.25303918 0.25875631 194 12
1.6948061 0.24847572 0.25989076 198 12
1.6980274 0.24348383 0.26026893 63 12
2.7421246 0.3600125 0.42098352 199 12
2.7407897 0.35109246 0.42060539 240 12
2.7222517 0.34010911 0.41758016 248 12
2.7208526 0.33126703 0.41720203 248 12
2.7169695 0.32215473 0.4164457 248 12
2.7105999 0.31279808 0.41531125 248 12
2.7041986 0.30348337 0.41417682 252 12
2.7002237 0.29446912 0.4134205 248 12
2.6938083 0.28476813 0.41228604 248 12
2.6873121 0.27557555 0.41115159 248 12
2.6832445 0.26666242 0.41039526 248 12
2.6791458 0.25778288 0.40963894 248 12
2.6749761 0.24939331 0.40888268 248 12
2.6732433 0.24124114 0.40850452 248 12
2.671525 0.23263802 0.40812635 248 12
2.6697798 0.22404554 0.40774822 248 12
2.6680064 0.21546888 0.40737006 248 12
2.6662054 0.20690556 0.4069919 248 12
2.664377 0.19835566 0.40661374 248 12
2.6649876 0.18998152 0.40661374 248 12
2.663136 0.18098864 0.40623561 248 12
2.6612251 0.1724706 0.40585744 248 12
2.6617537 0.16410978 0.40585744 252 12
2.6597884 0.15561324 0.40547928 248 12
2.6577961 0.14713071 0.40510112 252 12
2.655777 0.13865972 0.40472302 248 12
2.6561995 0.13031617 0.40472302 248 12
2.6516576 0.12176523 0.4039667 248 12
2.6520269 0.11343472 0.4039667 248 12
2.6499007 0.10501426 0.40358853 248 12
2.6477475 0.096609585 0.4032104 248 12
2.6480386 0.088289417 0.4032104 248 12
2.6458454 0.079446845 0.40283224 248 12
2.648541 0.071649089 0.4032104 248 12
2.64627 0.063745365 0.40283224 248 12
2.6489191 0.055933233 0.4032104 248 12
2.6490817 0.047610402 0.4032104 248 12
2.6492183 0.039288346 0.4032104 248 12
2.6493285 0.030965904 0.4032104 248 12
2.6518843 0.022650598 0.40358853 248 12
2.6519439 0.013859469 0.40358853 248 12
0.99901432 0.0053266473 -0.076070726 17 5
1.0040083 0.0021437814 -0.076489121 15 5
1.0139743 -0.0011304116 -0.077325895 18 5
1.0164567 -0.0043537212 -0.077535093 15 5
1.0214171 -0.0078114565 -0.07795348 18 5
1.0164071 -0.010916185 -0.077535093 15 5
1.0163682 -0.014110655 -0.077535093 12 5
1.0113382 -0.017164474 -0.077116698 13 5
1.0137694 -0.020418981 -0.077325895 16 5
0.99876153 -0.023092495 -0.076070726 17 5
1.0011736 -0.026323104 -0.076279923 13 5
0.99112922 -0.029064866 -0.075443149 12 5
0.98107755 -0.03174378 -0.074606366 12 5
1.0083466 -0.036107086 -0.076907508 11 5
1.040581 -0.040709492 -0.079627037 12 5
1.0329916 -0.043399289 -0.078999452 11 5
1.0427991 -0.047198694 -0.079836234 11 5
1.3215626 -0.10031953 -0.10347523 11 5
1.3485206 -0.10708939 -0.10577636 13 5
1.3605833 -0.11245591 -0.10682233 16 5
1.3751054 -0.11813003 -0.1080775 24 5
1.3747274 -0.12244946 -0.1080775 29 5
1.3991238 -0.12925497 -0.11016945 81 5
1.3937548 -0.13313676 -0.10975106 107 5
1.4032383 -0.13857189 -0.11058784 123 5
1.3953671 -0.14216338 -0.10996026 139 5
1.3825363 -0.14514706 -0.10891428 175 5
1.3746499 -0.14862682 -0.1082867 192 5
1.3692281 -0.15234913 -0.10786831 196 5
1.3662974 -0.15610829 -0.10765912 199 5
1.3658288 -0.1601662 -0.10765912 198 5
1.3702606 -0.16509199 -0.1080775 199 5
1.3697351 -0.16939594 -0.1080775 199 5
1.3691962 -0.17369826 -0.1080775 199 5
1.3711115 -0.17833999 -0.1082867 199 5
1.3705446 -0.18264657 -0.1082867 199 5
1.369964 -0.18695134 -0.1082867 199 5
1.36937 -0.19125429 -0.1082867 199 5
1.3687276 -0.19578901 -0.1082867 199 5
1.3681061 -0.20009181 -0.1082867 199 5
1.3699317 -0.20477828 -0.10849589 199 5
1.3692816 -0.20908101 -0.10849589 199 5
1.368618 -0.21338169 -0.10849589 200 5
1.370398 -0.21809146 -0.10870509 198 5
1.3697062 -0.2223956 -0.10870509 199 5
1.3690007 -0.22669756 -0.10870509 199 5
1.3682817 -0.23099728 -0.10870509 198 5
1.370001 -0.2357367 -0.10891428 199 5
1.3692535 -0.24003953 -0.10891428 199 5
1.3684927 -0.24433997 -0.10891428 199 5
1.3702093 -0.24886447 -0.10912348 199 5
1.3694646 -0.25292504 -0.10912348 199 5
1.3687084 -0.25699055 -0.10912348 199 5
1.3678943 -0.26128918 -0.10912348 199 5
1.36702 -0.26581863 -0.10912348 199 5
1.3661783 -0.2701157 -0.10912348 199 5
1.3677614 -0.27491808 -0.10933267 199 5
1.366891 -0.2792137 -0.10933267 199 5
1.3684423 -0.28403214 -0.10954187 199 5
1.3675432 -0.28832978 -0.10954187 199 5
1.3690624 -0.29316553 -0.10975106 199 5
1.3681346 -0.29746509 -0.10975106 199 5
1.3671933 -0.30176175 -0.10975106 199 5
1.3662387 -0.30605543 -0.10975106 200 5
1.3676953 -0.3109175 -0.10996026 199 5
1.3667117 -0.3152127 -0.10996026 200 5
1.3680799 -0.32032493 -0.11016945 200 5
1.3670669 -0.3246251 -0.11016945 200 5
1.3684577 -0.32952198 -0.11037865 200 5
1.3674157 -0.33381948 -0.11037865 199 5
1.3687737 -0.33873108 -0.11058784 200 5
1.3677027 -0.34302956 -0.11058784 200 5
1.3666184 -0.3473199 -0.11058784 200 5
1.3655818 -0.3513732 -0.11058784 200 5
1.3669391 -0.35607502 -0.11079703 200 5
1.3658137 -0.36036763 -0.11079703 200 5
1.3646748 -0.36465666 -0.11079703 200 5
1.365922 -0.36961165 -0.11100622 200 5
1.3647541 -0.37390101 -0.11100622 200 5
1.3659681 -0.37887123 -0.11121543 200 5
1.3647711 -0.38316065 -0.11121543 200 5
1.3659515 -0.38814595 -0.11142462 200 5
1.3670458 -0.39337578 -0.11163381 200 5
1.3658031 -0.39767236 -0.11163381 200 5
1.366861 -0.40291843 -0.111843 200 5
1.3655882 -0.40721437 -0.111843 200 5
1.3667536 -0.41200334 -0.1120522 208 5
1.3678296 -0.41703999 -0.11226139 199 5
1.3665128 -0.42133513 -0.11226139 200 5
1.3675549 -0.426386 -0.11247059 208 5
1.3685787 -0.43144751 -0.11267978 200 5
1.3672165 -0.43574485 -0.11267978 200 5
1.368206 -0.44082019 -0.11288898 208 5
1.37154 -0.44669566 -0.11330737 208 5
1.3724904 -0.45179456 -0.11351656 200 5
1.3735018 -0.45666897 -0.11372576 208 5
1.374496 -0.46155804 -0.11393496 208 5
1.377745 -0.46751079 -0.11435334 212 5
1.3786199 -0.47266257 -0.11456253 220 5
1.3841715 -0.47949106 -0.11519013 232 5
1.3803132 -0.48299652 -0.11498092 244 5
1.3811314 -0.48817855 -0.11519013 248 5
1.3725716 -0.48994908 -0.11456253 63 5
1.3663514 -0.49253342 -0.11414415 198 5
1.3531253 -0.49247342 -0.11309817 198 5
1.3515716 -0.49672198 -0.11309817 196 5
1.3429314 -0.49854082 -0.11247059 199 5
1.343684 -0.50365341 -0.11267978 204 5
1.339684 -0.50720263 -0.11247059 220 5
1.3357632 -0.51050526 -0.11226139 208 5
1.3272904 -0.51172501 -0.11163381 198 5
1.3187326 -0.51312762 -0.11100622 198 5
1.3101792 -0.51448166 -0.11037865 197 5
1.3062478 -0.51765907 -0.11016945 196 5
1.304615 -0.52176023 -0.11016945 195 5
1.3052722 -0.52680683 -0.11037865 193 5
1.3036115 -0.53090006 -0.11037865 189 5
1.3043274 -0.53573018 -0.11058784 191 5
1.3073195 -0.54154539 -0.11100622 190 5
1.3101938 -0.54760695 -0.11142462 192 5
1.3152345 -0.55490214 -0.1120522 196 5
1.320338 -0.56201524 -0.11267978 56 5
1.32541 -0.56916344 -0.11330737 63 5
1.3304505 -0.57634765 -0.11393496 170 5
1.3377339 -0.584584 -0.11477173 156 5
1.3449786 -0.59287179 -0.11560851 140 5
1.3544528 -0.60223991 -0.11665448 126 5
1.3570851 -0.60856456 -0.11707287 77 5
1.3664777 -0.61804187 -0.11811884 83 5
1.3645293 -0.62233168 -0.11811884 104 5
1.3625674 -0.62661541 -0.11811884 91 5
1.351583 -0.62663436 -0.11728207 123 5
1.3473588 -0.62980568 -0.11707287 163 5
1.3408825 -0.63187784 -0.11665448 186 5
1.3410218 -0.63740712 -0.11686368 192 5
1.3367741 -0.64052361 -0.11665448 196 5
1.3392254 -0.64692062 -0.11707287 199 5
1.3349547 -0.6500175 -0.11686368 204 5
1.3330202 -0.65397596 -0.11686368 204 5
1.3310748 -0.65792447 -0.11686368 204 5
1.3313377 -0.66300136 -0.11707287 204 5
1.3314664 -0.6683147 -0.11728207 204 5
1.3337895 -0.67477643 -0.11770046 204 5
1.3338739 -0.68011123 -0.11790965 204 5
1.3338195 -0.68568105 -0.11811884 212 5
1.3360649 -0.69219625 -0.11853723 212 5
1.3360832 -0.69756073 -0.11874642 204 5
1.3382776 -0.70410699 -0.11916482 212 5
1.3382514 -0.70949066 -0.11937401 212 5
1.3403932 -0.71607113 -0.1197924 212 5
1.344692 -0.72386879 -0.12041999 212 5
1.3489547 -0.73170042 -0.12104756 212 5
1.3553591 -0.74077642 -0.12188435 212 5
1.363893 -0.75111717 -0.12293032 228 5
1.3702056 -0.76029456 -0.1237671 220 5
1.3743081 -0.76828808 -0.12439469 228 5
1.3783736 -0.77631497 -0.12502226 228 5
1.3780862 -0.78188592 -0.12523146 228 5
1.3776397 -0.78770322 -0.12544066 220 5
1.3773084 -0.79328567 -0.12564985 228 5
1.3769554 -0.79887378 -0.12585904 220 5
1.3765811 -0.80446762 -0.12606825 228 5
1.3763262 -0.80982703 -0.12627743 228 5
1.376053 -0.81518811 -0.12648663 228 5
1.3756161 -0.82079649 -0.12669583 228 5
1.3794088 -0.82901156 -0.1273234 228 5
1.3810418 -0.83595163 -0.1277418 228 5
1.3826452 -0.8429088 -0.12816019 236 5
1.3842185 -0.84988421 -0.12857857 216 5
1.3836515 -0.85555315 -0.12878777 232 5
1.3830627 -0.86122698 -0.12899697 220 5
1.3824518 -0.86690551 -0.12920615 232 5
1.3797214 -0.87124437 -0.12920615 232 5
1.3790706 -0.87692565 -0.12941535 232 5
1.3804866 -0.88396889 -0.12983374 224 5
1.3818719 -0.8910296 -0.13025214 232 5
1.3830713 -0.89834416 -0.13067052 224 5
1.3864683 -0.90682113 -0.13129811 236 5
1.3856834 -0.91255772 -0.13150729 224 5
1.3869437 -0.91968757 -0.13192569 236 5
1.3861103 -0.92543739 -0.13213488 220 5
1.3873125 -0.93259442 -0.13255328 232 5
1.3843759 -0.936948 -0.13255328 232 5
1.3855244 -0.94412535 -0.13297166 232 5
1.384598 -0.94989181 -0.13318086 232 5
1.3838143 -0.95542485 -0.13339005 232 5
1.3828423 -0.96120226 -0.13359924 232 5
1.381846 -0.96698725 -0.13380843 232 5
1.3808279 -0.97277302 -0.13401763 232 5
1.3818103 -0.98001504 -0.13443603 232 5
1.3827606 -0.98727286 -0.13485441 232 5
1.3816657 -0.99307925 -0.1350636 236 5
1.3825566 -1.0003618 -0.135482 228 5
1.3834153 -1.0076598 -0.13590038 236 5
1.3822423 -1.013487 -0.13610959 236 5
1.3830411 -1.0208091 -0.13652797 228 5
1.3838075 -1.0281461 -0.13694637 236 5
1.3845415 -1.035498 -0.13736475 224 5
1.3850628 -1.0431014 -0.13778314 236 5
1.3837532 -1.0489687 -0.13799232 224 5
1.384392 -1.0563598 -0.13841072 236 5
1.3810666 -1.0607038 -0.13841072 228 5
1.3777275 -1.0650373 -0.13841072 236 5
1.3743747 -1.0693601 -0.13841072 23 5
5.165597 -4.1109381 -0.54654938 208 5
5.1546001 -4.1287022 -0.54675859 224 5
5.1442642 -4.1455441 -0.54696774 232 5
5.1338725 -4.1623654 -0.54717696 232 5
4.2957835 -3.5029893 -0.45764169 204 5
4.2828345 -3.5148833 -0.45743251 220 5
4.271771 -3.5283208 -0.45743251 212 5
5.1557531 -4.2888064 -0.55533558 228 5
5.1441617 -4.3065853 -0.55554479 228 5
5.1325092 -4.3243327 -0.55575395 228 5
4.2802253 -3.6269214 -0.46328998 204 5
4.2700686 -3.6427109 -0.46349913 220 5
4.2567158 -3.654485 -0.46328998 212 5
5.1579185 -4.4595675 -0.5647493 228 5
5.1495128 -4.4806643 -0.56537694 228 5
5.1447692 -4.5050406 -0.56642288 228 5
5.1399231 -4.5294323 -0.56746888 228 5
5.1405573 -4.558805 -0.5691424 220 5
5.1392021 -4.5865641 -0.57060677 228 5
5.1414247 -4.6176953 -0.57248956 228 5
5.1416564 -4.647212 -0.57416308 220 5
5.1417532 -4.6767755 -0.57583666 228 5
5.1417155 -4.7063856 -0.57751018 220 5
5.1415415 -4.7360411 -0.57918376 220 5
5.1412325 -4.7657423 -0.58085734 228 5
5.1424608 -4.7936931 -0.58253086 216 5
5.1437039 -4.8251901 -0.58441365 224 5
5.1429906 -4.8550296 -0.58608717 224 5
5.1439443 -4.8866305 -0.58796996 224 5
5.1438937 -4.9191785 -0.58985269 216 5
5.1427512 -4.9491591 -0.59152627 224 5
5.143259 -4.9809151 -0.593409 216 5
5.1418371 -5.0109806 -0.59508252 216 5
5.1402769 -5.0410862 -0.5967561 216 5
5.1421194 -5.0747361 -0.59884804 220 5
5.1367402 -5.1014147 -0.6001032 220 5
5.1330042 -5.1298728 -0.60156757 220 5
5.1256328 -5.1548195 -0.60261357 63 5
2.3558447 -2.3756845 -0.27313203 193 5
2.3483696 -2.383074 -0.27313203 216 5
2.3408716 -2.3904397 -0.27313203 248 5
2.3346655 -2.3999763 -0.27334124 252 5
2.3288381 -2.4090991 -0.27355045 252 5
2.324697 -2.4200091 -0.27396882 248 5
2.3222256 -2.4327238 -0.27459642 248 5
2.3184149 -2.443229 -0.27501479 244 5
2.316268 -2.4555476 -0.2756424 248 5
2.3127964 -2.4656544 -0.27606076 244 5
2.3105514 -2.4779851 -0.27668834 248 5
2.3069456 -2.491539 -0.27731594 244 5
2.3041489 -2.5042903 -0.27794352 240 5
2.3046453 -2.5207369 -0.27898949 244 5
2.3050611 -2.5372112 -0.28003547 244 5
2.3099422 -2.5596752 -0.28170905 244 5
2.315145 -2.5818033 -0.28338259 244 5
2.3218844 -2.6058524 -0.28526536 248 5
2.3252051 -2.6262267 -0.28672969 248 5
2.3284206 -2.6466475 -0.28819406 244 5
2.328263 -2.6633532 -0.28924003 248 5
2.3280237 -2.6800838 -0.290286 248 5
2.3228362 -2.6911659 -0.2907044 248 5
2.3240662 -2.7098265 -0.29195955 244 5
2.3203712 -2.7228177 -0.29258713 244 5
2.3198256 -2.7396247 -0.29363313 244 5
2.3175998 -2.7545438 -0.29446989 244 5
2.3180056 -2.7737086 -0.29572508 244 5
2.3172061 -2.7905874 -0.29677102 244 5
2.3179073 -2.8094096 -0.2980262 248 5
2.3174305 -2.8259299 -0.29907218 244 5
2.3200097 -2.8463478 -0.30053654 244 5
2.3219905 -2.8672071 -0.30200091 244 5
2.323863 -2.8881068 -0.30346528 244 5
2.3240769 -2.9070961 -0.30472043 244 5
2.3252301 -2.9284718 -0.3061848 244 5
2.3206282 -2.9416471 -0.30681238 244 5
2.3205605 -2.9607153 -0.30806753 244 5
2.318872 -2.9778414 -0.3091135 244 5
2.3216541 -3.0009103 -0.31078708 244 5
2.3243146 -3.0240259 -0.31246063 244 5
2.3283587 -3.0491722 -0.31434339 244 5
2.3307676 -3.0723844 -0.31601694 244 5
2.334547 -3.0976355 -0.3178997 244 5
2.3322413 -3.1149466 -0.31894568 244 5
2.3298495 -3.1322739 -0.31999165 244 5
2.3258975 -3.1476085 -0.32082844 244 5
2.3198545 -3.1613381 -0.32145602 244 5
2.3142943 -3.1746652 -0.32208359 240 5
2.3101306 -3.1900084 -0.32292035 240 5
2.3087924 -3.2094085 -0.32417554 236 5
2.3088007 -3.230859 -0.3256399 236 5
2.3150089 -3.2600822 -0.32794103 244 5
2.3181987 -3.285295 -0.32982379 244 5
2.3206847 -3.3109572 -0.33170652 240 5
2.3201966 -3.3325703 -0.33317089 63 5
2.3181844 -3.3521602 -0.33442608 40 5
1.9226847 -2.7957349 -0.27710673 197 5
1.9138923 -2.8017614 -0.27710673 196 5
2.251688 -3.3222079 -0.32919621 199 5
2.2066026 -3.2775047 -0.32396632 204 5
2.2721393 -3.3985326 -0.33547205 220 5
2.2628241 -3.4077332 -0.33568123 232 5
2.2487833 -3.411047 -0.33526284 244 5
2.2339766 -3.411834 -0.33463526 240 5
2.2151315 -3.4062836 -0.3333801 244 5
2.2030733 -3.4111292 -0.33317089 244 5
2.1843109 -3.4054298 -0.33191574 244 5
2.1749341 -3.4143803 -0.33212492 240 5
2.1575661 -3.4106512 -0.33107895 244 5
2.1455216 -3.4152994 -0.33086976 240 5
2.1242797 -3.4050844 -0.32919621 244 5
2.1083472 -3.4032557 -0.32835943 244 5
2.0833528 -3.3864806 -0.3260583 244 5
2.0694139 -3.3862617 -0.32543069 244 5
2.0471885 -3.3735449 -0.32354796 244 5
2.0353 -3.3778224 -0.32333875 244 5
2.0183139 -3.3734925 -0.32229277 244 5
2.0115047 -3.3862524 -0.32292035 244 5
1.9983374 -3.3882565 -0.32250199 244 5
1.9901884 -3.3988245 -0.32292035 244 5
1.9770091 -3.4007454 -0.32250199 244 5
1.9663154 -3.40694 -0.32250199 244 5
1.9543698 -3.4109354 -0.32229277 244 5
1.9436448 -3.4170582 -0.32229277 248 5
1.7361428 -3.0736361 -0.28861246 240 5
1.6925515 -3.0181279 -0.28275499 248 5
1.6529419 -2.9689171 -0.27752513 248 5
1.640013 -2.9675424 -0.27689755 252 5
1.6283003 -2.9683039 -0.27647915 248 5
1.6142304 -2.9646375 -0.2756424 248 5
1.6025541 -2.9653032 -0.275224 252 5
1.59089 -2.9659245 -0.27480561 252 5
1.5780741 -2.964299 -0.27417803 252 5
1.5675974 -2.9670355 -0.27396882 252 5
1.5548196 -2.9653153 -0.27334124 248 5
1.5432112 -2.9657578 -0.27292287 252 5
1.5327524 -2.9683723 -0.27271366 248 5
1.5216771 -2.968468 -0.27229527 252 5
1.5101011 -2.9687846 -0.27187687 252 5
1.4996518 -2.9712863 -0.27166769 252 5
1.4869858 -2.9692891 -0.27104011 252 5
1.4743468 -2.967242 -0.27041253 252 5
1.4628298 -2.9673827 -0.26999414 252 5
1.4502392 -2.965239 -0.26936656 252 5
1.4387567 -2.9652903 -0.26894814 252 5
1.4272879 -2.9652991 -0.26852977 252 5
1.4153198 -2.9655085 -0.26811138 252 5
1.4038767 -2.9654324 -0.26769298 252 5
1.3924502 -2.965312 -0.26727459 248 5
1.3820832 -2.9674098 -0.26706541 252 5
1.3696426 -2.964942 -0.26643783 252 5
1.3592916 -2.9669616 -0.26622862 252 5
1.3479183 -2.9666743 -0.26581025 252 5
1.3365606 -2.9663444 -0.26539183 252 5
1.3242093 -2.9636948 -0.26476425 248 5
1.3138907 -2.9655592 -0.26455507 252 5
1.3015853 -2.9628196 -0.26392749 252 5
1.2912837 -2.9646065 -0.26371828 252 5
1.2800061 -2.9640663 -0.26329991 252 5
1.2702297 -2.9655602 -0.2630907 252 5
1.2589769 -2.964942 -0.26267231 252 5
1.2477388 -2.9642839 -0.26225394 252 5
1.2365172 -2.9635842 -0.26183552 252 5
1.2253128 -2.9628437 -0.26141715 248 5
1.2141247 -2.9620616 -0.26099876 252 5
1.2038835 -2.9635501 -0.26078957 252 5
1.1922096 -2.9628942 -0.26037118 252 5
1.181978 -2.9643099 -0.26016197 252 5
1.1703305 -2.9635706 -0.2597436 252 5
1.1592119 -2.9625885 -0.25932521 252 5
1.1486301 -2.9613643 -0.25890681 252 5
1.1375499 -2.9603012 -0.25848842 252 5
1.1264882 -2.9591975 -0.25807005 252 5
1.1163151 -2.9603879 -0.25786084 252 5
1.1061456 -2.9615433 -0.25765163 248 5
1.0951242 -2.9603248 -0.25723326 252 5
1.0849698 -2.9614086 -0.25702405 252 5
1.0748192 -2.9624577 -0.25681487 248 5
1.0633268 -2.9613075 -0.25639647 252 5
1.0523628 -2.9599349 -0.25597808 252 5
1.0427552 -2.9606926 -0.2557689 252 5
1.0331565 -2.9614165 -0.25555971 252 5
1.0235573 -2.9621131 -0.2553505 252 5
1.0126506 -2.9605939 -0.25493211 252 5
1.0020416 -2.9615705 -0.25472292 252 5
0.99194729 -2.9623406 -0.25451374 252 5
0.98185945 -2.9630756 -0.25430453 252 5
0.97177827 -2.9637754 -0.25409535 252 5
0.96094173 -2.9620693 -0.25367695 252 5
0.95012552 -2.960324 -0.25325856 252 5
0.93933016 -2.9585402 -0.25284016 248 5
0.92929292 -2.9590969 -0.25263098 252 5
0.91853094 -2.9572384 -0.25221258 252 5
0.90851331 -2.9577253 -0.2520034 252 5
0.89850128 -2.9581788 -0.25179419 252 5
0.88849533 -2.9585984 -0.25158501 252 5
0.87798375 -2.9591348 -0.25137579 252 5
0.86798751 -2.9594874 -0.25116661 252 5
0.85799932 -2.9598053 -0.25095743 252 5
0.8480193 -2.9600887 -0.25074822 252 5
0.8380456 -2.9603386 -0.25053903 248 5
0.82807881 -2.9605556 -0.25032985 252 5
0.81746846 -2.9583325 -0.24991144 252 5
0.80803949 -2.9583395 -0.24970224 252 5
0.79797322 -2.9559114 -0.24928387 252 5
0.78805023 -2.9559944 -0.24907467 252 5
0.77938515 -2.9608669 -0.24928387 252 5
0.77255076 -2.9729545 -0.25012064 252 5
0.76696128 -2.9924054 -0.25158501 244 5
0.76417869 -3.0213928 -0.25388616 236 5
0.76122284 -3.0503907 -0.25618729 200 5
0.75868064 -3.0818198 -0.25869763 220 5
0.75073361 -3.0914567 -0.25932521 204 5
0.74902344 -3.1277461 -0.26225394 212 5
0.72395998 -3.064568 -0.25660565 204 5
0.70319682 -3.0182621 -0.25242177 244 5
0.68437868 -2.9791465 -0.24886547 248 5
0.67447501 -2.9788504 -0.24865629 248 5
0.66031009 -2.959054 -0.24677353 248 5
0.6504845 -2.9586787 -0.24656433 248 5
0.64015621 -2.9583805 -0.24635513 248 5
0.63034552 -2.9579401 -0.24614593 248 5
0.62104833 -2.9599063 -0.24614593 248 5
0.61125141 -2.9594016 -0.24593675 248 5
0.60146832 -2.9588618 -0.24572755 248 5
0.59268677 -2.9606335 -0.24572755 248 5
0.58342254 -2.9599352 -0.24551836 248 5
0.57365584 -2.9593058 -0.24530916 248 5
0.56338698 -2.9587407 -0.24509998 248 5
0.55408549 -2.9604976 -0.24509998 248 5
0.544339 -2.9597728 -0.24489078 248 5
0.53503811 -2.9614682 -0.24489078 248 5
0.52530545 -2.9606798 -0.24468158 248 5
0.51600152 -2.9623156 -0.24468158 248 5
0.50628239 -2.9614646 -0.24447238 248 5
0.49657306 -2.9605825 -0.2442632 248 5
0.48687458 -2.9596682 -0.244054 248 5
0.47757399 -2.9611831 -0.244054 248 5
0.4678888 -2.9602067 -0.24384481 248 5
0.45821485 -2.9591987 -0.24363559 248 5
0.44891587 -2.9606235 -0.24363559 248 5
0.43925622 -2.9595537 -0.24342643 248 5
0.42909068 -2.9585273 -0.24321723 248 5
0.41979429 -2.9598608 -0.24321723 248 5
0.41016048 -2.9586961 -0.24300802 248 5
0.40086365 -2.95997 -0.24300802 248 5
0.39156476 -2.9612138 -0.24300802 248 5
0.38277355 -2.962364 -0.24300802 248 5
0.37346631 -2.9635513 -0.24300802 248 5
0.36385953 -2.9622362 -0.24279882 248 5
0.35455179 -2.9633648 -0.24279882 248 5
0.34496129 -2.9619887 -0.24258964 248 5
0.33538324 -2.9605813 -0.24238044 248 5
0.3260805 -2.9616203 -0.24238044 252 5
0.3165189 -2.9601519 -0.24217124 248 5
0.30721799 -2.9611316 -0.24217124 248 5
0.29716232 -2.9596527 -0.24196205 248 5
0.28785914 -2.9605727 -0.24196205 252 5
0.2785553 -2.961463 -0.24196205 248 5
0.26925045 -2.9623237 -0.24196205 252 5
0.25973412 -2.9606724 -0.24175285 248 5
0.25043184 -2.9614737 -0.24175285 248 5
0.24112673 -2.9622457 -0.24175285 248 5
0.23163418 -2.9605045 -0.24154367 248 5
0.22233258 -2.9612176 -0.24154367 252 5
0.2130284 -2.9619014 -0.24154367 248 5
0.2035605 -2.9600701 -0.24133447 252 5
0.19426039 -2.960695 -0.24133447 252 5
0.18481652 -2.9588022 -0.24112527 252 5
0.17603695 -2.9593375 -0.24112527 252 5
0.1672513 -2.9598482 -0.24112527 252 5
0.1579517 -2.9603591 -0.24112527 252 5
0.14865056 -2.9608407 -0.24112527 252 5
0.1393483 -2.961293 -0.24112527 252 5
0.12943289 -2.9592478 -0.24091607 252 5
0.12013171 -2.9596412 -0.24091607 255 5
0.11083163 -2.9600043 -0.24091607 252 5
0.10153218 -2.9603379 -0.24091607 255 5
0.092231371 -2.9606423 -0.24091607 255 5
0.082990438 -2.963408 -0.24112527 252 5
0.07368008 -2.963654 -0.24112527 252 5
0.064369 -2.963871 -0.24112527 255 5
0.055057626 -2.9640586 -0.24112527 255 5
0.045745704 -2.9642169 -0.24112527 255 5
0.036432993 -2.9643459 -0.24112527 255 5
0.027120264 -2.9644456 -0.24112527 255 5
0.017294621 -2.9645181 -0.24112527 255 5
0.0079800151 -2.9620676 -0.24091607 255 5
-0.0018390095 -2.9620767 -0.24091607 255 5
-0.011148128 -2.9620574 -0.24091607 255 5
-0.019933593 -2.9620104 -0.24091607 255 5
-0.028721783 -2.9619381 -0.24091607 255 5
-0.037514348 -2.9618409 -0.24091607 255 5
-0.046867888 -2.9641993 -0.24112527 255 5
-0.056179736 -2.9640374 -0.24112527 255 5
-0.065491386 -2.9638462 -0.24112527 252 5
-0.074802391 -2.9636259 -0.24112527 255 5
-0.084032312 -2.9608865 -0.24091607 252 5
-0.093845494 -2.9605904 -0.24091607 252 5
-0.10305381 -2.9577925 -0.24070689 252 5
-0.11234699 -2.9574544 -0.24070689 252 5
-0.12163734 -2.9570868 -0.24070689 252 5
-0.13092683 -2.9566901 -0.24070689 252 5
-0.14021501 -2.9562643 -0.24070689 252 5
-0.14963664 -2.9582965 -0.24091607 252 5
-0.1589298 -2.9578118 -0.24091607 252 5
-0.16822103 -2.9572978 -0.24091607 252 5
-0.17751095 -2.9567547 -0.24091607 252 5
-0.18696518 -2.9586682 -0.24112527 252 5
-0.19643319 -2.9605515 -0.24133447 248 5
-0.2066095 -2.9648521 -0.24175285 252 5
-0.21630724 -2.969157 -0.24217124 252 5
-0.22654547 -2.9733894 -0.24258964 248 5
-0.236302 -2.9776289 -0.24300802 252 5
-0.2440979 -2.9770002 -0.24300802 244 5
-0.25344899 -2.9762187 -0.24300802 248 5
-0.26279759 -2.9754078 -0.24300802 248 5
-0.30945989 -3.3664093 -0.27606076 236 5
-0.32003438 -3.3654206 -0.27606076 199 5
-0.29183516 -2.9827127 -0.24384481 240 5
-0.30120432 -2.9817812 -0.24384481 248 5
-0.31030282 -2.9783435 -0.24363559 252 5
-0.31989706 -2.9748216 -0.24342643 252 5
-0.32896176 -2.9713271 -0.24321723 252 5
-0.33800527 -2.9678051 -0.24300802 252 5
-0.34732702 -2.9667284 -0.24300802 252 5
-0.35695234 -2.9680951 -0.24321723 252 5
-0.36627522 -2.966959 -0.24321723 252 5
-0.37591636 -2.9682641 -0.24342643 252 5
-0.38556957 -2.9695375 -0.24363559 252 5
-0.39489689 -2.9683115 -0.24363559 252 5
-0.40421993 -2.9670563 -0.24363559 252 5
-0.41353938 -2.9657717 -0.24363559 252 5
-0.42321491 -2.966923 -0.24384481 252 5
-0.43304613 -2.9655027 -0.24384481 252 5
-0.44274116 -2.9665906 -0.244054 252 5
-0.45257261 -2.9651058 -0.244054 252 5
-0.46228221 -2.9661298 -0.2442632 252 5
-0.46952978 -2.9649916 -0.2442632 252 5
-0.47924846 -2.9659595 -0.24447238 252 5
-0.48907587 -2.9643536 -0.24447238 252 5
-0.4988125 -2.9652579 -0.24468158 252 5
-0.50812721 -2.9636762 -0.24468158 252 5
-0.51787293 -2.9645181 -0.24489078 248 5
-0.5276292 -2.9653275 -0.24509998 252 5
-0.53739572 -2.9661047 -0.24530916 252 5
-0.54671115 -2.964402 -0.24530916 252 5
-0.55649 -2.9651165 -0.24551836 248 5
-0.56627846 -2.9657991 -0.24572755 252 5
-0.57559311 -2.9640055 -0.24572755 252 5
-0.58539367 -2.9646249 -0.24593675 252 5
-0.5952034 -2.9652116 -0.24614593 248 5
-0.60604268 -2.9680996 -0.24656433 252 5
-0.61536819 -2.966181 -0.24656433 252 5
-0.62520784 -2.9666688 -0.24677353 252 5
-0.63452464 -2.9646902 -0.24677353 248 5
-0.64437336 -2.9651146 -0.24698271 252 5
-0.65368479 -2.9630756 -0.24698271 248 5
-0.66353893 -2.9634361 -0.24719191 252 5
-0.67232889 -2.9614544 -0.24719191 248 5
-0.68168044 -2.9618723 -0.2474011 252 5
-0.69104016 -2.9622607 -0.24761032 248 5
-0.70196426 -2.9622526 -0.24781951 252 5
-0.71185797 -2.9624527 -0.2480287 252 5
-0.7217592 -2.9626203 -0.24823789 248 5
-0.73166919 -2.9627545 -0.24844709 252 5
-0.7415871 -2.9628558 -0.24865629 248 5
-0.75089133 -2.9605114 -0.24865629 244 5
-0.7601884 -2.9581378 -0.24865629 252 5
-0.77011442 -2.9581435 -0.24886547 248 5
-0.77940363 -2.9557095 -0.24886547 252 5
-0.78868562 -2.9532461 -0.24886547 248 5
-0.79912889 -2.9530172 -0.24907467 252 5
-0.80907315 -2.9528923 -0.24928387 248 5
-0.8190217 -2.9527342 -0.24949306 252 5
-0.82897609 -2.9525425 -0.24970224 248 5
-0.83962667 -2.9547114 -0.25012064 252 5
-0.85029936 -2.9568424 -0.25053903 252 5
-0.86028916 -2.9565461 -0.25074822 252 5
-0.87028509 -2.9562161 -0.25095743 248 5
-0.87956345 -2.9534676 -0.25095743 248 5
-0.88904917 -2.9532278 -0.25116661 252 5
-0.89927977 -2.9553382 -0.25158501 248 5
-0.90930122 -2.9548767 -0.25179419 252 5
-0.91932857 -2.9543817 -0.2520034 248 5
-0.92936134 -2.9538524 -0.25221258 248 5
-0.93991059 -2.953126 -0.25242177 248 5
-0.9499588 -2.952527 -0.25263098 248 5
-0.96001035 -2.9518945 -0.25284016 248 5
-0.9708513 -2.9535916 -0.25325856 252 5
-0.98091942 -2.9528885 -0.25346777 248 5
-0.99099231 -2.9521513 -0.25367695 248 5
-1.0010707 -2.9513798 -0.25388616 248 5
-1.0111538 -2.9505739 -0.25409535 248 5
-1.0212415 -2.949734 -0.25430453 248 5
-1.0313343 -2.9488597 -0.25451374 248 5
-1.0419408 -2.9477699 -0.25472292 248 5
-1.0528921 -2.9491677 -0.25514132 248 5
-1.0630065 -2.9481862 -0.2553505 248 5
-1.0731241 -2.94717 -0.25555971 248 5
-1.0832455 -2.9461191 -0.2557689 248 5
-1.0942461 -2.9473662 -0.25618729 248 5
-1.104751 -2.948766 -0.25660565 248 5
-1.1143808 -2.947803 -0.25681487 248 5
-1.1249174 -2.9491322 -0.25723326 248 5
-1.1350802 -2.9479051 -0.25744244 248 5
-1.1452461 -2.9466436 -0.25765163 248 5
-1.1554158 -2.9453473 -0.25786084 248 5
-1.1665133 -2.9463291 -0.25827923 248 5
-1.1766961 -2.9449599 -0.25848842 248 5
-1.1883358 -2.9456556 -0.25890681 248 5
-1.1985315 -2.944212 -0.25911602 248 5
-1.4225503 -3.4581792 -0.3061848 248 5
-1.4343694 -3.4559913 -0.30639398 248 5
-1.4471579 -3.4560583 -0.30681238 248 5
-1.4589843 -3.4537868 -0.30702159 248 5
-1.4708109 -3.4514751 -0.30723077 248 5
-1.4836282 -3.4514089 -0.30764917 248 5
-1.4970556 -3.4510362 -0.30806753 248 5
-1.5099046 -3.4508743 -0.30848593 248 5
-1.5237775 -3.4529419 -0.3091135 248 5
-1.5366567 -3.4526842 -0.30953193 248 5
-1.5495496 -3.4523787 -0.30995029 248 5
-1.561422 -3.4497602 -0.3101595 248 5
-1.5726917 -3.4473758 -0.31036869 248 5
-1.5839571 -3.4449551 -0.31057787 248 5
-1.596283 -3.4447544 -0.31099626 244 5
-1.6092194 -3.4442301 -0.31141466 244 5
-1.6249007 -3.4478779 -0.31225145 248 5
-1.6389552 -3.4494965 -0.31287903 248 5
-1.6541164 -3.453305 -0.31371582 248 5
-1.6682256 -3.4548123 -0.31434339 248 5
-1.6823615 -3.4562645 -0.31497097 248 5
-1.6954191 -3.4554291 -0.31538936 248 5
-1.7073773 -3.4523156 -0.31559855 248 5
-1.7204503 -3.4513872 -0.31601694 248 5
-1.7312849 -3.4459651 -0.31601694 244 5
-1.744365 -3.444948 -0.31643534 236 5
-1.7523569 -3.4324989 -0.31580773 244 5
-1.7665739 -3.4336119 -0.31643534 244 5
-1.7704356 -3.4147947 -0.31518015 13 5
-1.7823149 -3.4114203 -0.31538936 232 5
-1.5456461 -2.9391809 -0.27104011 199 5
-1.5548716 -2.9343107 -0.27104011 193 5
-1.8320969 -3.4273765 -0.31852728 216 5
-1.8571063 -3.4478834 -0.32103759 232 5
-1.8727015 -3.4507782 -0.32187438 244 5
-1.8853347 -3.4495716 -0.32229277 244 5
-1.900395 -3.4526782 -0.32312956 248 5
-1.9160897 -3.4553919 -0.32396632 248 5
-1.9293779 -3.4536982 -0.32438472 248 5
-1.9439024 -3.4541225 -0.32501233 244 5
-1.9584476 -3.4544899 -0.3256399 248 5
-1.9705322 -3.4504802 -0.32584909 244 5
-1.9813626 -3.4442725 -0.32584909 248 5
-1.9909183 -3.4358788 -0.3256399 248 5
-1.995394 -3.4188666 -0.3245939 236 5
-1.9947075 -3.3932848 -0.32271117 200 5
-1.9931931 -3.3652525 -0.32061923 208 5
-1.9896499 -3.3354797 -0.3183181 208 5
-1.9872288 -3.3078945 -0.31622612 208 5
-1.9846529 -3.2803578 -0.31413418 208 5
-1.9845295 -3.2571173 -0.31246063 208 5
-1.9816617 -3.229671 -0.31036869 208 5
-1.9812726 -3.2065058 -0.30869514 208 5
-1.9807577 -3.1833754 -0.30702159 208 5
-1.9801161 -3.1602798 -0.30534801 208 5
-1.9806855 -3.1393228 -0.30388364 208 5
-1.9811409 -3.1183944 -0.3024193 212 5
-1.9809492 -3.0978377 -0.30095491 212 5
-1.9811854 -3.076966 -0.29949057 212 5
-1.9813107 -3.0561235 -0.2980262 212 5
-1.9818503 -3.034966 -0.29656187 220 5
-1.9817537 -3.0141819 -0.29509747 208 5
-1.9843072 -2.997575 -0.2940515 216 5
-1.9895507 -2.9851201 -0.29342392 224 5
-1.9961299 -2.9747262 -0.29300556 232 5
-2.0082669 -2.9725609 -0.29342392 232 5
-2.0204108 -2.9703481 -0.29384232 244 5
-2.0339742 -2.9701393 -0.29446989 248 5
-2.0475554 -2.9698753 -0.29509747 248 5
-2.0625827 -2.9715967 -0.29593426 248 5
-2.0752881 -2.9688172 -0.29635265 248 5
-2.090368 -2.9704132 -0.29718944 244 5
-2.1040299 -2.9699161 -0.29781702 248 5
-2.1191607 -2.9713867 -0.29865378 248 5
-2.1328614 -2.9707727 -0.29928136 248 5
-2.1465802 -2.9701014 -0.29990897 248 5
-2.1603155 -2.9693732 -0.30053654 248 5
-2.1740675 -2.9685879 -0.30116412 244 5
-2.1893158 -2.969748 -0.30200091 248 5
-2.2025878 -2.9692287 -0.30262849 248 5
-2.2173769 -2.9706464 -0.30346528 248 5
-2.2312059 -2.9696271 -0.30409285 244 5
-2.2455633 -2.9681604 -0.30472043 248 5
-2.2609415 -2.9689996 -0.30555722 248 5
-2.2748225 -2.9677999 -0.3061848 248 5
-2.288718 -2.9665425 -0.30681238 248 5
-2.3026276 -2.9652269 -0.30743995 248 5
-2.3180909 -2.965812 -0.30827674 248 5
-2.3320358 -2.9643743 -0.30890432 252 5
-2.3459933 -2.9628797 -0.30953193 252 5
-2.3599648 -2.9613259 -0.3101595 248 5
-2.3755143 -2.9616523 -0.31099626 248 5
-2.3910887 -2.9619098 -0.31183305 248 5
-2.4082644 -2.9640286 -0.31287903 248 5
-2.4244075 -2.9637229 -0.31371582 248 5
-2.4400656 -2.9637651 -0.31455258 252 5
-2.457341 -2.9656525 -0.31559855 252 5
-2.4730492 -2.965553 -0.31643534 248 5
-2.4871752 -2.9634793 -0.31706291 252 5
-2.5013115 -2.9613471 -0.31769049 252 5
-2.5170782 -2.9610484 -0.31852728 252 5
-2.5312421 -2.958792 -0.31915486 252 5
-2.5486753 -2.9602427 -0.32020083 248 5
