# .PCD v0.7 - Point Cloud Data file format
VERSION 0.7
FIELDS x y z rgb
SIZE 4 4 4 4
TYPE F F F F
COUNT 1 1 1 1
WIDTH 1157
HEIGHT 1
VIEWPOINT 0 0 0 1 0 0 0
POINTS 1157
DATA ascii
2.0762355 0.49317414 -0.14545605 0
2.0422237 0.4586868 -0.142646 0
2.0340352 0.430695 -0.14168647 0
1.9540436 0.38874847 -0.1357237 0
2.0077045 0.37388232 -0.13915059 0
1.6268369 0.28226459 -0.11228382 0
1.6390427 0.26370806 -0.11290066 0
1.6451159 0.24401447 -0.11310627 0
1.6687459 0.22663252 -0.11454556 0
2.0288332 0.25030953 -0.13928765 0
2.246917 0.24930736 -0.15416034 0
0 0 0 1.171169944e-38
10.003175 0.86342442 -0.68861705 0
1.4755424 0.1087831 -0.10049534 0
1.4807494 0.090913385 -0.10076949 0
1.4847428 0.07288304 -0.1009751 0
1.4865224 0.054694433 -0.10104364 0
1.4820949 0.036324788 -0.10070095 0
1.3786818 0.016836332 -0.093573034 0
1.4120889 -0.0014431755 -0.103942 0
1.4109675 -0.01875918 -0.10386772 0
1.4893888 -0.038017936 -0.10973604 0
1.4798412 -0.055960447 -0.1090675 0
1.4840232 -0.074361578 -0.10943891 0
1.4839944 -0.092628531 -0.10951319 0
1.4827459 -0.11083245 -0.10951319 0
1.4822676 -0.12910539 -0.10958748 0
1.4815642 -0.14738327 -0.10966176 0
1.480635 -0.16566332 -0.10973604 0
1.4794804 -0.18394274 -0.10981032 0
1.4850169 -0.20315926 -0.11040458 0
1.4824119 -0.2213674 -0.11040458 0
1.4864757 -0.2406522 -0.11092456 0
1.4794804 -0.25819287 -0.11062744 0
1.480122 -0.27705967 -0.11092456 0
1.4775887 -0.29539686 -0.11099885 0
1.4621456 -0.31102666 -0.11010745 0
0.71194822 -0.16124567 -0.053132743 0
1.4851191 -0.35419402 -0.11248449 0
1.4748569 -0.37093729 -0.1120388 0
1.4808007 -0.3918055 -0.11285591 0
1.4806865 -0.41127831 -0.11322732 0
1.4774436 -0.42997345 -0.11337589 0
1.4749186 -0.44894049 -0.11359873 0
1.4740515 -0.46851277 -0.11397015 0
1.482394 -0.49126077 -0.11508439 0
1.4771968 -0.50973958 -0.11515867 0
1.4614414 -0.52446765 -0.11441584 0
1.4763932 -0.5503571 -0.11612434 0
1.4732498 -0.5698694 -0.11642147 0
1.4735528 -0.59086901 -0.11701573 0
1.4717185 -0.61119789 -0.11746143 0
1.4696065 -0.6315704 -0.11790712 0
1.4672153 -0.65198272 -0.11835282 0
1.4690765 -0.67450821 -0.11916992 0
1.4660971 -0.69504428 -0.11961562 0
1.4682109 -0.71823376 -0.12050701 0
1.4646307 -0.73888791 -0.1209527 0
1.4607639 -0.7595619 -0.1213984 0
1.4671623 -0.78589469 -0.12273549 0
1.4574077 -0.80383986 -0.12273549 0
1.4665209 -0.83248067 -0.1243697 0
1.4673944 -0.85694408 -0.12533538 0
1.460189 -0.87693805 -0.12563251 0
1.4544111 -0.89793026 -0.1260782 0
4.7178392 -2.990001 -0.41481444 0
4.6657467 -3.0378802 -0.41347736 0
4.5302839 -3.0295162 -0.40471202 0
4.4080768 -3.0267594 -0.39706093 0
4.3379922 -3.0576515 -0.39408961 0
4.3348927 -3.1357803 -0.39728376 0
4.3345289 -3.2172604 -0.40084934 0
4.3328118 -3.2991996 -0.40441489 0
4.3320894 -3.3834174 -0.4082033 0
4.3455157 -3.4805753 -0.41347736 0
4.4866924 -3.6848683 -0.4312309 0
4.45258 -3.7492821 -0.43234512 0
4.4379463 -3.8310022 -0.43546501 0
4.427948 -3.9182088 -0.43917912 0
2.4032373 -2.1804929 -0.24047332 0
2.379951 -2.2132142 -0.24084473 0
2.3663328 -2.2553203 -0.2422561 0
2.365597 -2.3106582 -0.24507883 0
2.3610351 -2.3634927 -0.24760444 0
2.3541365 -2.4151318 -0.24998148 0
2.3580105 -2.4792337 -0.25362134 0
2.3633752 -2.5467124 -0.25755832 0
2.363416 -2.6102564 -0.26104957 0
2.3596063 -2.6711907 -0.26424372 0
2.369632 -2.74979 -0.26914638 0
2.3735836 -2.8236878 -0.27352905 0
2.3551993 -2.872648 -0.27546039 0
2.3235083 -2.9060056 -0.27590609 0
2.3128221 -2.9665365 -0.27895167 0
2.3305783 -3.0661306 -0.28563711 0
2.084307 -2.8133209 -0.25956392 0
2.3539195 -3.259815 -0.29826513 0
2.293072 -3.2591007 -0.29559097 0
2.2354198 -3.2615004 -0.2932882 0
2.1592238 -3.2347853 -0.28845984 0
2.1220837 -3.2652187 -0.28883126 0
2.0749207 -3.2800601 -0.28786558 0
1.9534463 -3.1736679 -0.27635178 0
1.6765294 -2.8004777 -0.24188468 0
1.6309928 -2.8018839 -0.24025047 0
1.586167 -2.8034647 -0.23869054 0
1.5401075 -2.801749 -0.23690775 0
1.4948007 -2.8002079 -0.23519926 0
1.448388 -2.7953236 -0.2332679 0
1.40277 -2.7906165 -0.23141085 0
1.3618603 -2.7941768 -0.23029661 0
1.3193704 -2.7935488 -0.22888523 0
1.2783476 -2.7950218 -0.22769672 0
1.2366805 -2.7940872 -0.22635964 0
1.1956227 -2.7934699 -0.22509684 0
1.1566746 -2.7968752 -0.22420543 0
1.1144924 -2.7914128 -0.22264551 0
1.0751309 -2.7918525 -0.22160555 0
1.0366219 -2.7936182 -0.22071417 0
0.99453813 -2.7845318 -0.21900566 0
0.95737433 -2.7880394 -0.21833712 0
0.91871136 -2.7863204 -0.21729717 0
0.87842917 -2.7783704 -0.21581151 0
0.84137481 -2.7793975 -0.21506868 0
0.80387276 -2.7780192 -0.2141773 0
0.80162114 -2.9030132 -0.2230912 0
0.73672462 -2.8017323 -0.21454871 0
0.69453841 -2.7796056 -0.21217167 0
0.65876424 -2.7811275 -0.2116517 0
0.62305748 -2.7821908 -0.21113171 0
0.58721769 -2.781822 -0.21053745 0
0.55089778 -2.7780595 -0.20972034 0
0.51457661 -2.7728455 -0.20882896 0
0.47965914 -2.7740383 -0.20845754 0
0.44478998 -2.7747929 -0.20808613 0
0.40997458 -2.7751098 -0.20771472 0
0.37508449 -2.7740028 -0.20726903 0
0.34016153 -2.7714684 -0.20674904 0
0.30623552 -2.7764254 -0.20682332 0
0.2713607 -2.7720344 -0.20622906 0
0.23655444 -2.7662137 -0.20556052 0
0.20259094 -2.7689083 -0.20556052 0
0.16829193 -2.7662089 -0.20518911 0
0.13423605 -2.7660737 -0.20504054 0
0.10020886 -2.7655196 -0.20489198 0
0.066264138 -2.7665412 -0.20489198 0
0.032321513 -2.7681434 -0.20496626 0
-0.0016496866 -2.7643425 -0.20466913 0
-0.035535127 -2.7611225 -0.20444629 0
-0.069341794 -2.7574878 -0.20422344 0
-0.10328577 -2.759419 -0.20444629 1.402018592e-38
-0.13723847 -2.7599359 -0.20459485 9.41798825e-39
-0.17115809 -2.7590392 -0.20466913 8.434345392e-40
-0.24161245 -3.2520039 -0.24166183 8.315683438e-40
-0.26727313 -3.0838652 -0.22933094 7.647157572e-39
-0.27455264 -2.7707183 -0.20615478 1.834509044e-38
-0.3083128 -2.7651579 -0.20600621 1.669457665e-38
-0.34271124 -2.7651253 -0.20630334 1.770800691e-38
-0.37648338 -2.7597234 -0.20622906 1.761545395e-38
-0.410907 -2.758841 -0.20652619 1.798494973e-38
-0.44504842 -2.7555599 -0.20667475 1.78019948e-38
-0.48070693 -2.7606988 -0.20749187 1.946080848e-38
-0.51564485 -2.7604742 -0.20793757 1.881507333e-38
-0.5500654 -2.7568727 -0.20816042 1.918385305e-38
-0.58426845 -2.7518663 -0.20830898 1.872322662e-38
-0.62018049 -2.7542188 -0.2090518 1.973665969e-38
-0.6548546 -2.7502818 -0.20934893 1.955334743e-38
-0.6902526 -2.7488098 -0.20986891 1.891014723e-38
-0.72495002 -2.7439895 -0.21016604 1.835266165e-38
-0.76122963 -2.7444973 -0.21090886 1.98285092e-38
-0.7981863 -2.7464418 -0.21180026 2.11203158e-38
-0.83414626 -2.7440741 -0.21239452 2.056786229e-38
-0.87016803 -2.7412362 -0.21298878 2.093664902e-38
-0.90781015 -2.7426608 -0.21395445 2.139654816e-38
-0.94529319 -2.7426295 -0.21484584 2.139726843e-38
-0.98257536 -2.7411504 -0.21566294 2.130578606e-38
-1.0185727 -2.7354293 -0.21618293 2.13969083e-38
-1.0567315 -2.7348185 -0.2171486 2.075297802e-38
-1.0950279 -2.7336814 -0.21811427 2.093665182e-38
-1.1342186 -2.7338567 -0.21922851 2.102885305e-38
-1.3634174 -3.1761565 -0.2562212 2.093737769e-38
-1.4334192 -3.2293813 -0.26194099 1.31000499e-38
-1.4783411 -3.2233336 -0.26290664 8.665293392e-39
-1.5258887 -3.2220762 -0.26431802 9.034794777e-39
-1.5762522 -3.2255118 -0.26617509 9.128792477e-39
-1.6246856 -3.2237396 -0.26766074 8.944029873e-39
-1.6774461 -3.229228 -0.26981491 7.375997911e-39
-1.7240009 -3.221591 -0.27092916 6.730259961e-39
-1.5926553 -2.8900728 -0.24455886 6.271095091e-39
-1.8315519 -3.2295005 -0.27531183 9.262652914e-40
-1.8830997 -3.2274575 -0.2770946 4.977466796e-39
-1.9271791 -3.2118037 -0.27776316 5.254773953e-39
-1.9748199 -3.2014949 -0.27895167 5.52992311e-39
-1.9611273 -3.0936186 -0.27159771 4.241343693e-39
-1.9554276 -3.0024536 -0.2656551 4.793072734e-39
-1.9533337 -2.9201953 -0.26045531 5.716102427e-39
-1.9523427 -2.8425603 -0.25562695 7.282707867e-39
-1.9520434 -2.7686586 -0.25109571 7.92879334e-39
-1.9730176 -2.7267165 -0.2494615 1.050556962e-38
-2.0366328 -2.743145 -0.25324991 2.258283139e-38
-2.0634987 -2.7092168 -0.25243279 1.660021461e-38
-2.0990441 -2.6868351 -0.25272992 2.350988001e-38
-2.1480622 -2.6811149 -0.25466129 2.350988562e-38
-2.2042139 -2.6830716 -0.25740975 2.350988562e-38
-2.2568808 -2.679472 -0.25971249 2.350988562e-38
-2.3117423 -2.6772456 -0.26223812 2.350988562e-38
-2.373493 -2.6815417 -0.26550654 2.350988562e-38
-2.4222965 -2.6699448 -0.26728931 2.350988562e-38
-2.4861047 -2.6736226 -0.27070633 2.350988562e-38
-2.5469246 -2.6725206 -0.27375188 2.350988562e-38
-2.610177 -2.6724653 -0.27702034 2.350988562e-38
-2.6709864 -2.6684351 -0.27999163 2.350988562e-38
-2.7270885 -2.6584361 -0.28244296 2.350988562e-38
-2.7956235 -2.6591465 -0.28615707 2.350988562e-38
-2.8609281 -2.6551771 -0.28949979 2.350988562e-38
-2.9346802 -2.6573663 -0.29365963 2.350988562e-38
-2.9999444 -2.650214 -0.29692805 2.350988562e-38
-3.0790644 -2.6535783 -0.30153358 2.350988562e-38
-3.1510797 -2.6489742 -0.30539626 2.350988562e-38
-3.2218981 -2.6417322 -0.30911037 2.350988562e-38
-2.0167582 -1.612026 -0.19107543 2.350988562e-38
-2.0599763 -1.6055583 -0.1933039 2.350988562e-38
-2.0826988 -1.5825732 -0.19360103 2.295887264e-38
-2.1019626 -1.5568961 -0.19360103 6.359676773e-39
-2.1112101 -1.523976 -0.19270964 6.087426902e-39
-2.1281219 -1.4968052 -0.19256108 2.350982116e-38
-2.148797 -1.4722692 -0.19278392 2.350988281e-38
-2.172507 -1.4496667 -0.1933039 1.751824027e-38
-2.1734133 -1.4120237 -0.19181825 5.895097286e-39
-2.2032161 -1.3932471 -0.19293249 2.157191646e-38
-2.2294877 -1.3718585 -0.19374959 2.350988562e-38
-2.2410219 -1.3413206 -0.1933039 2.350988562e-38
-2.2590365 -1.3147229 -0.19345246 4.800272605e-39
-2.2793388 -1.2893591 -0.19382387 2.349726272e-38
-2.2976108 -1.2627331 -0.19404672 2.350988562e-38
-2.3138132 -1.2349129 -0.194121 2.350988141e-38
-2.3367603 -1.2105579 -0.19478956 5.897947527e-39
-2.3541124 -1.1831359 -0.19501241 2.184742155e-38
-2.379209 -1.1594055 -0.19590379 2.350988562e-38
-2.3968637 -1.1318265 -0.19620092 2.350988562e-38
-2.4178264 -1.1056491 -0.19679518 2.221662866e-38
-2.428477 -1.0746835 -0.19657233 1.068493442e-38
-2.4570651 -1.0514784 -0.19783513 2.350988562e-38
-2.4826827 -1.0265881 -0.1988751 2.350988562e-38
-2.5006497 -0.99826533 -0.19932079 2.231598353e-38
-5.1999087 -2.0035982 -0.41384879 2.350988562e-38
-5.2540178 -1.9507506 -0.41622582 2.350988562e-38
-5.5273337 -1.9754558 -0.43598497 2.350988562e-38
-5.4747729 -1.8812125 -0.42996809 1.069575525e-38
-6.036262 -1.9917966 -0.47223485 4.891013687e-39
-5.9860935 -1.8940922 -0.46644083 2.222414243e-38
-6.0346537 -1.8283031 -0.46844643 4.341099328e-39
-5.9637265 -1.7271835 -0.46124104 1.09719722e-38
-5.9777451 -1.6520084 -0.46072105 1.107028449e-38
-6.0264978 -1.5861483 -0.46294954 4.61373876e-39
-6.0261607 -1.5072312 -0.46146387 6.733859896e-39
-6.0267377 -1.4290227 -0.46012679 1.788662902e-38
-6.0301976 -1.3519008 -0.45908684 2.028408674e-38
-6.0219421 -1.2726394 -0.45722979 2.084120798e-38
-6.0224352 -1.1957291 -0.45611554 2.019476938e-38
-5.3650689 -0.99680114 -0.40523201 2.037808304e-38
-5.3690362 -0.92952579 -0.40463772 1.779985501e-38
-5.3642855 -0.86103719 -0.40344921 6.089582099e-39
-5.3714881 -0.79470569 -0.40322638 7.74909643e-39
-5.3768835 -0.72819322 -0.40292925 8.02388125e-39
-4.9459629 -0.60802269 -0.36994779 8.024598714e-39
-4.8331194 -0.53400064 -0.36095959 7.932403085e-39
-4.8224363 -0.4729915 -0.35969681 2.34118802e-38
-4.8080063 -0.41206899 -0.35821116 2.350988562e-38
-4.8117065 -0.35296315 -0.35813686 2.350988562e-38
-4.8067174 -0.2933405 -0.35746834 2.350988562e-38
-4.8179231 -0.23472285 -0.3580626 2.249969516e-38
-4.8134651 -0.17532597 -0.3575426 2.350988562e-38
-4.8003001 -0.11587933 -0.35642835 2.350988562e-38
-4.8193097 -0.057181083 -0.35776547 2.249969516e-38
-4.9981542 0.0019908261 -0.37106204 2.112216272e-38
-6.0048847 0.075839534 -0.44608739 4.531284957e-39
-6.0094833 0.14967075 -0.44653308 2.350843527e-38
-6.0061979 0.22336823 -0.44645882 2.350988562e-38
-6.0030046 0.2970567 -0.44645882 2.350988562e-38
-6.0078654 0.37125215 -0.44712734 2.350988562e-38
-6.0058408 0.44517052 -0.4473502 2.350986179e-38
-6.0038996 0.51918072 -0.44764733 2.083577655e-38
-6.002039 0.59330821 -0.44801873 2.000963543e-38
-5.9784474 0.66515672 -0.44683021 2.332620341e-38
-5.8560176 0.72441566 -0.43828773 2.350988562e-38
-5.1539974 0.70203716 -0.38621566 2.35098688e-38
-5.1528854 0.76640362 -0.38680992 2.350988562e-38
-5.1588454 0.83211684 -0.38799846 1.254905094e-38
-5.1561055 0.89672631 -0.38859272 6.646337597e-39
-5.160399 0.9628551 -0.38978124 6.370465369e-39
-5.1491728 1.0263033 -0.3898555 7.382099165e-39
-5.1498494 1.0923079 -0.39089546 7.014755779e-39
-5.3403816 1.2013376 -0.4064948 5.357393842e-39
-5.8617668 1.3942859 -0.44757304 5.817664336e-39
-5.9738355 1.498603 -0.45752692 5.63363321e-39
-5.9704237 1.5758672 -0.45871544 1.024053644e-38
-5.9458303 1.6476842 -0.45834401 7.1973786e-39
-5.9500642 1.7277499 -0.46027535 8.671439487e-39
-5.8348975 1.7722528 -0.45299569 8.672138735e-39
-5.8450313 1.8539672 -0.45552129 1.051535349e-38
-5.849299 1.934631 -0.45767549 1.03309356e-38
-5.8543491 2.0163264 -0.45997822 3.323716005e-39
-5.8592091 2.0987718 -0.46235529 5.720419827e-39
-5.8601189 2.1805956 -0.46450946 5.905525749e-39
-5.9157205 2.2842989 -0.47112063 5.997725583e-39
-5.9492774 2.3815408 -0.47609755 5.997006717e-39
-5.9518485 2.4677303 -0.47869742 6.365420695e-39
-5.9431138 2.5500157 -0.48048022 1.539662394e-38
-5.9441924 2.6373084 -0.48315439 2.350988562e-38
-5.9458313 2.7258399 -0.48597711 2.350988562e-38
-5.9398775 2.811821 -0.48827988 2.350988562e-38
-5.9362893 2.8998148 -0.49087977 2.350988562e-38
-5.9332128 2.9890385 -0.49362823 2.350988562e-38
-5.9306054 3.0795395 -0.49652526 2.350988562e-38
-5.9266653 3.1704245 -0.49942225 2.350988562e-38
-5.9231296 3.2626355 -0.50246787 2.350988562e-38
-5.7507696 3.2603419 -0.4911769 2.350988562e-38
-5.7060194 3.3281558 -0.49080548 2.350988562e-38
-5.6792884 3.4066448 -0.49206829 2.350988562e-38
-5.7482643 3.5446298 -0.50179929 2.350988562e-38
-5.9006219 3.739243 -0.51910716 2.350988562e-38
-5.8342314 3.7983167 -0.51732433 1.365252864e-38
-5.9148607 3.9549668 -0.52876389 1.807246642e-38
-5.8428593 4.0114532 -0.52668393 1.623215096e-38
-5.8119431 4.0960617 -0.52839243 1.659733634e-38
-5.1381731 3.7165773 -0.47112063 1.355380016e-38
-5.1186075 3.7989583 -0.47357193 1.743648011e-38
-5.1231837 3.900743 -0.47840029 1.482701293e-39
-5.3154688 4.1510959 -0.50113076 5.256222896e-39
-5.305388 4.2490449 -0.50506777 2.399238771e-39
-4.0288501 3.3090098 -0.38710704 2.122295951e-39
-3.9902291 3.3601277 -0.38732991 1.384013448e-39
-3.9026389 3.3691003 -0.38279867 1.477285275e-39
-3.790786 3.3546321 -0.37581611 6.728794202e-39
-3.6902301 3.3473132 -0.36987349 2.350988562e-38
-3.6189239 3.3645136 -0.36682793 1.191016954e-38
-3.5354793 3.3687809 -0.36251953 1.439471236e-38
-3.1870048 3.1123939 -0.33057803 1.163251767e-38
-3.0963976 3.0990798 -0.32508114 4.789568086e-40
-3.0309768 3.1090035 -0.32218412 1.199083529e-38
-2.9355316 3.0860088 -0.31601867 1.972151866e-38
-2.8648674 3.0867248 -0.31245309 3.879407918e-39
-2.7973106 3.0891325 -0.30918467 2.305961339e-39
-2.7314517 3.091846 -0.30606481 2.582189496e-39
-2.6737671 3.1024759 -0.30383632 2.857700188e-39
-2.5937676 3.0854487 -0.29900795 2.673664858e-39
-2.5493839 3.1093361 -0.29826513 2.581827961e-39
-2.4705396 3.0897729 -0.29343677 2.397438102e-39
-2.4177155 3.1009874 -0.29165399 2.397795433e-39
-2.3480861 3.0891488 -0.28779131 2.765863291e-39
-2.2838678 3.0824835 -0.28452286 2.305961339e-39
-2.2365243 3.0973451 -0.28333434 2.858056118e-39
-2.1845684 3.1049876 -0.28155157 2.397795433e-39
-2.1197908 3.0929091 -0.27806029 2.397798236e-39
-2.0318248 3.0440562 -0.27137485 2.213405575e-39
-1.933423 2.9751294 -0.26305521 2.120133748e-39
-1.9463733 3.0769932 -0.26996347 2.028656984e-39
-4.6082487 7.4836135 -0.65340996 2.028298252e-39
-4.4965892 7.507093 -0.65058726 1.936458552e-39
-4.3714962 7.5056996 -0.64575887 2.305242472e-39
-4.2471194 7.5023751 -0.64093053 3.87364718e-39
-4.1162763 7.4840312 -0.63498789 1.208983703e-38
-3.9912286 7.4724121 -0.6297881 2.350988562e-38
-2.2913527 4.4206562 -0.36965066 2.038024945e-38
-2.1544571 4.2845302 -0.35598266 1.844449575e-38
-2.0413742 4.1869626 -0.34573168 2.083941992e-38
-2.1513834 4.5533876 -0.37388477 2.295887264e-38
-1.9936348 4.3572998 -0.35568553 6.457299631e-39
-4.6935587 10.595895 -0.86199534 2.286231477e-38
-4.4814825 10.462035 -0.84654456 2.350988562e-38
-4.3371191 10.478465 -0.843499 2.350988562e-38
-1.7681772 4.426724 -0.35382849 4.880945358e-39
-1.7043936 4.4238968 -0.35189712 5.994869737e-39
-3.5636737 9.5952406 -0.76119393 4.699080639e-39
-3.4292021 9.5922394 -0.75755411 4.795949599e-39
-1.0741106 3.1275353 -0.24507883 2.950972015e-39
-1.0700439 3.2446456 -0.25324991 6.732055024e-39
-1.0337588 3.2689409 -0.2541413 8.020271505e-39
-0.99327672 3.2804263 -0.25406703 1.105694273e-38
-2.0417087 7.0489364 -0.54540318 1.770513424e-38
-0.90954775 3.293242 -0.25324991 1.151503841e-38
-0.87262225 3.317656 -0.25428987 2.309184325e-39
-0.81271309 3.2516911 -0.24842155 5.074716909e-39
-0.76906431 3.2458949 -0.24723303 4.059483178e-39
-0.7285192 3.2521689 -0.24701019 6.091751309e-39
-0.80599123 3.8160067 -0.28927696 3.139677873e-39
-0.76396233 3.8500631 -0.291134 3.325515273e-39
-0.71665865 3.8591478 -0.291134 3.5084688e-39
-0.677764 3.9167807 -0.29484814 2.956375422e-39
-0.95489061 5.9481521 -0.44749877 2.773061761e-39
-1.0696598 7.2270308 -0.54295182 3.049651453e-39
-0.98089248 7.2396131 -0.54295182 2.401765312e-39
-0.89222133 7.2530847 -0.54310042 2.491440006e-39
-0.76901031 6.9552312 -0.51999855 3.412673235e-39
-0.41394666 4.2220044 -0.31475586 3.505586329e-39
-0.3592011 4.1929846 -0.31223026 6.826041513e-39
-0.30552343 4.1672401 -0.31000179 2.350624084e-38
-0.25606993 4.1985464 -0.31208169 2.350985198e-38
-0.34589246 7.0879064 -0.52735251 2.350735767e-38
-0.2582655 7.0746756 -0.52608967 2.028195396e-38
-0.17186669 7.0952578 -0.52742678 1.502787926e-38
-0.084711514 7.0908494 -0.52698112 3.879061797e-39
0.002340494 7.2878108 -0.54161477 4.152037541e-39
0.054343022 4.2748117 -0.31720719 5.44241062e-39
0.10701908 4.2827954 -0.31787571 5.532805581e-39
0.2671552 7.1901064 -0.53470647 6.544428166e-39
0.35541782 7.1872826 -0.53478074 6.54729242e-39
0.44873956 7.2659898 -0.54102051 0
0.4305414 5.8079305 -0.43256798 0
0.49346712 5.7058353 -0.42536256 0
0.55238688 5.5872073 -0.41696864 0
0.8076961 7.2619791 -0.54302609 0
0.88000631 7.1159296 -0.53284943 0
0.99628514 7.3180342 -0.54889446 0
1.068876 7.1898451 -0.54020339 0
1.1686016 7.2480593 -0.54562598 0
1.2518274 7.2007494 -0.54317468 0
0.76354694 4.0908246 -0.30873898 0
1.4069432 7.0612526 -0.53507787 0
1.4294164 6.741025 -0.51205027 0
1.5115942 6.7210302 -0.51190174 0
1.6582862 6.9726653 -0.53262657 0
1.747121 6.965333 -0.53366649 0
1.840094 6.9722962 -0.53589499 0
1.9305726 6.9674506 -0.53730637 0
2.0220423 6.9643054 -0.53894055 0
2.1128559 6.957098 -0.54035193 0
2.2137394 6.9800787 -0.54421467 0
1.0780603 3.257751 -0.25436416 0
2.4006002 6.9707961 -0.54792875 0
1.1516349 3.2134128 -0.25302708 0
1.1857678 3.1850181 -0.25191283 0
1.211838 3.1367342 -0.24923865 0
5.2168331 13.035995 -1.0446562 0
5.3851929 12.992185 -1.0463647 0
1.1020434 2.5666745 -0.20682332 0
1.1245638 2.5329018 -0.20518911 0
1.1759171 2.563334 -0.20882896 0
2.070544 4.373198 -0.35917681 0
1.2218438 2.4996507 -0.20600621 0
5.40693 10.734912 -0.89408541 0
5.4252439 10.450014 -0.87581193 0
5.4148259 10.124104 -0.85397285 0
1.3901606 2.5222971 -0.21328591 0
1.3910166 2.4521236 -0.20875467 0
5.3925214 9.2468224 -0.79610676 0
0 0 0 1.171169944e-38
1.4133512 2.2906005 -0.19924651 0
1.4424213 2.2747691 -0.19939508 0
1.407674 2.1607769 -0.19085258 0
1.4108092 2.1085184 -0.18773271 0
1.4241632 2.0729578 -0.1860985 0
1.433987 2.0333135 -0.18409286 0
1.9192617 2.6523688 -0.24262752 0
1.9403764 2.6133997 -0.24121614 0
1.3924998 1.8275874 -0.1699049 0
1.4031628 1.7954262 -0.16849354 0
1.4063923 1.7547176 -0.16626506 0
1.4309832 1.7411807 -0.16663647 0
1.5016896 1.7822367 -0.17235622 0
1.4394059 1.6662773 -0.16277377 0
1.3672472 1.5439129 -0.15237422 0
1.3686754 1.5078095 -0.15044287 0
1.3653527 1.4675233 -0.14806584 0
1.3605632 1.4268272 -0.1456145 0
5.3142066 5.442843 -0.56538516 0
7.3623819 7.358398 -0.77411908 0
7.3421922 7.1602597 -0.76267958 0
1.4296576 1.3590364 -0.14568879 0
1.4411123 1.3366398 -0.14516881 0
1.405676 1.271983 -0.13996904 0
1.4421 1.2731307 -0.14204894 0
1.4107914 1.2149605 -0.13744342 0
1.422542 1.1949886 -0.13714629 0
1.3977796 1.1451831 -0.13335788 0
8.9321747 7.1450152 -0.8507787 0
2.3933516 1.8656448 -0.22479971 0
8.0579014 6.1273541 -0.75280005 0
8.1404972 6.0339494 -0.75354284 0
0 0 0 1.171169944e-38
4.3770328 3.0801532 -0.39743233 0
1.3921914 0.95334947 -0.12444399 0
1.4012979 0.93453163 -0.12422114 0
1.3934327 0.90476024 -0.12251264 0
1.4010601 0.88545901 -0.12221551 0
1.3982353 0.85983098 -0.12102699 0
1.4061152 0.84107012 -0.12080414 0
1.4094372 0.81973547 -0.12020988 0
1.4115806 0.79795516 -0.11954134 0
1.3828226 0.75942117 -0.1162729 0
1.441293 0.7687124 -0.12043273 0
1.4107811 0.73030674 -0.11709002 0
1.4018204 0.70397466 -0.11560436 0
1.4363452 0.69939995 -0.11775856 0
1.4123636 0.66637659 -0.11508439 0
1.4140879 0.64608854 -0.1145644 0
1.4191746 0.6274749 -0.11434156 0
1.4001855 0.59862208 -0.11218736 0
1.4221681 0.58749831 -0.11337589 0
1.3922307 0.55519587 -0.11040458 0
1.4361577 0.5524196 -0.11337589 0
1.3970233 0.51773584 -0.10973604 0
1.4746351 0.52607518 -0.11538152 0
1.485695 0.50956088 -0.11575293 0
2.1206129 0.69890398 -0.16507654 0
2.1442411 0.67764455 -0.16626506 0
2.2611904 0.68426484 -0.17473327 0
2.110419 0.6103828 -0.16240236 0
2.0850713 0.57540053 -0.15987676 0
1.4159703 0.37170616 -0.10780469 0
2.087923 0.52139324 -0.15905964 0
2.0796099 0.49227789 -0.15794541 0
2.01057 0.44990805 -0.15222566 0
2.0422823 0.43077391 -0.15423128 0
1.9574292 0.38779455 -0.14739729 0
1.8796854 0.3484244 -0.14115755 0
1.6077141 0.27746615 -0.12028416 0
1.6188749 0.25898227 -0.12087842 0
1.6604033 0.24479747 -0.12377544 0
1.6662469 0.2248055 -0.12399829 0
2.1310961 0.26127845 -0.15868823 0
2.2580392 0.24882773 -0.16797355 0
2.2837491 0.22334406 -0.16968206 0
9.9825354 0.85687667 -0.74507463 0
0.73605549 0.052950852 -0.053727005 0
1.4941263 0.090334803 -0.11025602 0
1.4841658 0.071456194 -0.10943891 0
1.4829379 0.053164709 -0.10929035 0
1.4705185 0.034646604 -0.10832467 0
1.4269577 0.016066715 -0.10505624 0
1.4233292 0.0019359067 -0.11416511 0
1.4501554 -0.01584742 -0.11634927 0
1.4558305 -0.033785634 -0.11683464 0
1.4841921 -0.052697785 -0.11918059 0
1.491398 -0.071294397 -0.11982775 0
1.4844415 -0.089227051 -0.11934238 0
1.4852231 -0.10758236 -0.11950417 0
1.485777 -0.12597026 -0.11966596 0
1.4870954 -0.14448515 -0.11990865 0
1.4921453 -0.16348876 -0.12047491 0
1.4910159 -0.18190888 -0.1205558 0
1.4906468 -0.20045952 -0.12071759 0
1.4910325 -0.21917424 -0.12096028 0
1.4882307 -0.237455 -0.12096028 0
1.4910975 -0.25671944 -0.12144565 0
1.4878349 -0.27499816 -0.12144565 0
1.4863036 -0.29362342 -0.12160744 0
1.4825884 -0.31184053 -0.12160744 0
0.70542198 -0.15678404 -0.057296079 0
1.4754587 -0.34836099 -0.12168833 0
1.4836435 -0.36958298 -0.12273996 0
1.4818882 -0.38852236 -0.12298265 0
1.4798911 -0.40747422 -0.12322533 0
1.4795665 -0.4269897 -0.12362981 0
1.4742151 -0.44511414 -0.12362981 0
1.477195 -0.46587634 -0.12435786 0
1.4713666 -0.48396873 -0.12435786 0
1.4756862 -0.50554967 -0.1252477 0
1.4684325 -0.52328527 -0.1251668 0
1.4637694 -0.5419594 -0.1253286 0
1.4784012 -0.56812102 -0.12718917 0
1.4731694 -0.58695972 -0.12735097 0
1.4769081 -0.60956526 -0.12832171 0
1.467484 -0.62685877 -0.12815991 0
1.4742637 -0.65127516 -0.12945423 0
1.469786 -0.67097604 -0.1297778 0
1.466849 -0.69151628 -0.13026318 0
1.4690039 -0.71470547 -0.13123392 0
1.4690279 -0.7371555 -0.13204287 0
1.4713758 -0.76108879 -0.13309449 0
1.4698386 -0.78331226 -0.13382255 0
1.4688499 -0.80609208 -0.1346315 0
1.4623173 -0.82601982 -0.13495508 0
1.4624074 -0.84991992 -0.13592581 0
1.4672606 -0.8770178 -0.13738193 0
1.4623295 -0.89861441 -0.13794819 0
1.462985 -0.92395127 -0.1390807 0
4.6608171 -3.0274096 -0.44971669 0
4.4931588 -2.9975038 -0.43701622 0
4.396018 -3.0112832 -0.43111089 0
4.3489518 -3.0581203 -0.43014017 0
4.3466525 -3.1369312 -0.43369952 0
4.342268 -3.2155488 -0.43717802 0
4.3437448 -3.2999556 -0.44138452 0
4.3485141 -3.388555 -0.44607642 0
4.3463073 -3.4734063 -0.45020208 0
4.3549991 -3.5688198 -0.45562202 0
4.315454 -3.6258416 -0.45610738 0
4.2676139 -3.6759233 -0.45578381 0
4.2393651 -3.7431936 -0.45764437 0
2.4124618 -2.1826758 -0.26268795 0
2.3818424 -2.2087262 -0.26228347 0
2.3697252 -2.252214 -0.26398227 0
2.3583245 -2.2971263 -0.26584285 0
2.3645096 -2.3604112 -0.26980668 0
2.3660092 -2.4206231 -0.27336606 0
2.3650074 -2.4797795 -0.27676365 0
2.3615479 -2.5378115 -0.27999943 0
2.3650532 -2.604986 -0.28420597 0
2.3665996 -2.6718764 -0.2883316 0
2.3681581 -2.7407005 -0.29261902 0
2.3715892 -2.8137705 -0.29731092 0
2.3596585 -2.8703876 -0.30022314 0
2.3392136 -2.9177969 -0.30216461 0
2.3112085 -2.9564936 -0.30321625 0
2.2946832 -3.0107996 -0.30588576 0
2.0448582 -2.752233 -0.27692541 0
2.3696802 -3.2729292 -0.32659483 0
2.3023441 -3.2634754 -0.32279277 0
2.2446299 -3.2660134 -0.32028502 0
2.1578321 -3.2237213 -0.31348988 0
2.1317086 -3.2708387 -0.31551224 0
2.0743322 -3.2698135 -0.31292361 0
1.9492766 -3.1575973 -0.29981866 0
1.6796001 -2.7966833 -0.26341599 0
1.6330986 -2.7964227 -0.26147452 0
1.5902998 -2.8015139 -0.26009932 0
1.5432942 -2.7981215 -0.25799605 0
1.4989645 -2.7983947 -0.25629726 0
1.4530243 -2.794466 -0.25427487 0
1.4087536 -2.7925048 -0.2524952 0
1.3665019 -2.793463 -0.25103909 0
1.32444 -2.793807 -0.24958299 0
1.2829921 -2.7944481 -0.24820778 0
1.2376853 -2.7853847 -0.24602363 0
1.1994796 -2.791204 -0.24521467 0
1.1594086 -2.7919035 -0.24400125 0
1.1187607 -2.7901912 -0.24262604 0
1.0765345 -2.7832553 -0.24084635 0
1.0367347 -2.781311 -0.23955204 0
0.99781805 -2.780688 -0.2384195 0
0.959723 -2.7814152 -0.23744877 0
0.92113471 -2.7797353 -0.23631625 0
0.88092387 -2.7718294 -0.23469836 0
0.84568363 -2.7786162 -0.23437478 0
0.80679458 -2.7725134 -0.23299956 0
0.80333769 -2.8926609 -0.24230246 0
0.74156487 -2.8030422 -0.2339703 0
0.69886065 -2.7790625 -0.23121987 0
0.66239679 -2.7777331 -0.23041092 0
0.6271655 -2.7807906 -0.23000646 0
0.58968294 -2.7726772 -0.22871214 0
0.55522364 -2.7777498 -0.22855034 0
0.51908237 -2.7735765 -0.22766051 0
0.48398188 -2.7738457 -0.22717513 0
0.44927073 -2.77564 -0.22685155 0
0.41517553 -2.7809446 -0.22685155 0
0.37980607 -2.7769413 -0.2261235 0
0.34423006 -2.7695234 -0.22515276 0
0.30988675 -2.7705672 -0.22491008 0
0.2757661 -2.7731695 -0.22482918 0
0.24068213 -2.7644286 -0.22385845 0
0.20666638 -2.76618 -0.22377755 0
0.17270555 -2.768508 -0.22377755 0
0.13857047 -2.7674322 -0.22353487 0
0.10448783 -2.7659364 -0.22329219 0
0.070437826 -2.7630246 -0.22296861 0
0.036462303 -2.7586977 -0.22256413 0
0.0026060911 -2.7589374 -0.22256413 0
-0.03125051 -2.7587616 -0.22256413 0
-0.065102413 -2.7581704 -0.22256413 0
-0.098980688 -2.7581599 -0.22264503 1.411202702e-38
-0.1328685 -2.7577331 -0.22272593 9.970443163e-39
-0.16615453 -2.7469409 -0.22199787 7.512459158e-40
-0.23691899 -3.2506711 -0.26317331 1.292545092e-39
-0.27322114 -3.2058091 -0.25977573 5.155000101e-39
-0.2693848 -2.7617793 -0.22385845 1.834328697e-38
-0.30402133 -2.7652006 -0.2244247 1.724630429e-38
-0.33756715 -2.7582939 -0.22418202 1.734030619e-38
-0.37219211 -2.7598701 -0.2246674 1.743250182e-38
-0.40661499 -2.7590387 -0.22499098 1.743321928e-38
-0.44091552 -2.7567935 -0.22523366 1.835373365e-38
-0.47573188 -2.7570682 -0.22571903 1.844485588e-38
-0.51062119 -2.7569027 -0.2262044 1.844664814e-38
-0.54577196 -2.7572722 -0.22677065 1.899982052e-38
-0.58121431 -2.7581689 -0.22741781 1.982814346e-38
-0.61545336 -2.7527742 -0.22757961 1.927569275e-38
-0.65033686 -2.7498636 -0.22798409 1.955300131e-38
-0.6852414 -2.746511 -0.22838856 1.918600965e-38
-0.72066855 -2.7446427 -0.22895482 1.872360217e-38
-0.75747955 -2.7471211 -0.22992556 1.899586886e-38
-0.7936281 -2.7462358 -0.23065361 2.148694313e-38
-0.82871312 -2.7410598 -0.23105809 2.07515459e-38
-0.86619473 -2.7430382 -0.23210971 2.102777265e-38
-0.90228832 -2.7397745 -0.23275687 2.130471827e-38
-0.939403 -2.7388651 -0.23364672 2.102957893e-38
-0.97864276 -2.7430875 -0.23502193 2.075082423e-38
-1.0177798 -2.7458227 -0.23631625 2.13958349e-38
-1.0528316 -2.7368467 -0.23663983 2.102885165e-38
-1.0926216 -2.7394567 -0.23801504 2.084374713e-38
-1.1299664 -2.7350528 -0.23882398 2.167278053e-38
-1.2948453 -3.0279405 -0.26592374 1.974135404e-38
-1.431559 -3.2369425 -0.28590477 1.254867539e-38
-1.4778072 -3.2336338 -0.28719908 6.181416194e-39
-1.5271686 -3.2359836 -0.28905964 7.466747401e-39
-1.5733151 -3.2304385 -0.29027307 8.757480614e-39
-1.6186591 -3.222465 -0.2913247 8.758921149e-39
-1.6672535 -3.2200582 -0.29294258 8.663847252e-39
-1.7165006 -3.2178206 -0.29464138 8.848958779e-39
-1.5628326 -2.8453913 -0.26212168 4.51937392e-39
-1.8248947 -3.2276428 -0.29957595 1.017381921e-39
-1.8774031 -3.2274017 -0.30167922 5.990175387e-39
-1.9265949 -3.2203684 -0.30321625 6.083812953e-39
-1.9649237 -3.1947858 -0.30305445 5.807228866e-39
-1.9592237 -3.0996752 -0.29625928 4.241346496e-39
-1.9552938 -3.0110464 -0.29003039 4.60940034e-39
-1.9539167 -2.9296227 -0.28444865 5.623908198e-39
-1.9474608 -2.8437617 -0.27838153 6.914282679e-39
-1.9478008 -2.7707376 -0.27352786 7.836236175e-39
-1.9764041 -2.7393537 -0.27279979 1.078215931e-38
-2.0270784 -2.7381191 -0.27514574 2.184562368e-38
-2.0605266 -2.7130377 -0.27514574 1.650551066e-38
-2.0918262 -2.6851895 -0.27490306 2.350624925e-38
-2.1408029 -2.679558 -0.27700633 2.350988562e-38
-2.1924818 -2.6762092 -0.27943316 2.350988562e-38
-2.2469635 -2.6750438 -0.28218359 2.350988562e-38
-2.3075993 -2.6797359 -0.28566206 2.350988562e-38
-2.3653851 -2.6796031 -0.28873608 2.350988562e-38
-2.4215043 -2.6762342 -0.29156739 2.350988562e-38
-2.4738257 -2.6675043 -0.29391333 2.350988562e-38
-2.537972 -2.6701679 -0.29763448 2.350988562e-38
-2.5997686 -2.6687989 -0.30103207 2.350988562e-38
-2.6597962 -2.6641953 -0.30418697 2.350988562e-38
-2.7279415 -2.6661773 -0.30823171 2.350988562e-38
-2.7907581 -2.6613815 -0.3116293 2.350988562e-38
-2.8597028 -2.660871 -0.31567404 2.350988562e-38
-2.9246209 -2.6550457 -0.31923342 2.350988562e-38
-2.9965386 -2.653969 -0.32352084 2.350988562e-38
-3.0696189 -2.6521733 -0.32788914 2.350988562e-38
-3.1385264 -2.6451254 -0.33177209 2.350988562e-38
-3.2146487 -2.6424758 -0.3363831 2.350988562e-38
-2.0302517 -1.6281402 -0.20986365 2.350988562e-38
-2.0532205 -1.6055577 -0.21018723 2.350988562e-38
-2.0711827 -1.5790328 -0.21002544 2.323437913e-38
-2.0896037 -1.5529032 -0.20994455 8.108881212e-39
-2.1028502 -1.5230536 -0.20937829 9.852324913e-39
-2.1230114 -1.4982823 -0.20954007 2.350981555e-38
-2.1445243 -1.4743741 -0.20986365 2.350988562e-38
-2.15997 -1.4462839 -0.20962097 2.322465552e-38
-2.1575108 -1.4066139 -0.2076795 5.628546496e-39
-2.1914458 -1.3907053 -0.20929739 2.350988562e-38
-2.21174 -1.3658013 -0.20962097 2.350988562e-38
-2.2343168 -1.342147 -0.21018723 2.350988562e-38
-2.2256529 -1.3000603 -0.20784128 8.384396108e-39
-2.2570448 -1.2815011 -0.20929739 2.350983096e-38
-2.2909331 -1.2638091 -0.21099618 2.350988562e-38
-2.308027 -1.2365412 -0.21115796 2.350988562e-38
-2.3150668 -1.2039899 -0.21042991 2.350988562e-38
-2.3385682 -1.1799755 -0.21123886 2.350984217e-38
-2.3707824 -1.1599414 -0.21285675 2.350988562e-38
-2.3884413 -1.1324673 -0.21318033 2.350988562e-38
-2.4130304 -1.1080585 -0.21415107 2.350988141e-38
-2.4346454 -1.0820028 -0.21487913 2.35098702e-38
-2.4550672 -1.0551897 -0.21552628 2.350988562e-38
-2.4742758 -1.0276561 -0.21609254 2.350988562e-38
-2.4450629 -0.9805401 -0.21245228 2.350988562e-38
-5.2145643 -2.0157957 -0.45238623 2.350988562e-38
-5.2585249 -1.9589559 -0.45408502 2.350988562e-38
-5.4989133 -1.9719535 -0.4727717 2.259153065e-38
-5.4746385 -1.8877642 -0.46864608 9.774876548e-39
-6.0424371 -2.000802 -0.5152415 1.144446622e-38
-5.9886327 -1.9017789 -0.5086081 2.176423907e-38
-6.0277314 -1.8330727 -0.5099833 4.250352641e-39
-5.9837298 -1.7397771 -0.50440156 6.915367284e-39
-5.9825377 -1.6600912 -0.50254101 1.189752843e-38
-6.0390787 -1.5962228 -0.505615 2.494668598e-39
-6.0350108 -1.5161697 -0.50367349 6.915371488e-39
-6.0308604 -1.4366887 -0.50181293 1.429100086e-38
-6.0305338 -1.3586328 -0.50035685 1.973596885e-38
-6.0340767 -1.2818366 -0.49930519 1.97388359e-38
-6.0298033 -1.2037939 -0.49768731 1.96459186e-38
-5.3710046 -1.0040342 -0.44211259 1.964592001e-38
-5.3662276 -0.93514293 -0.44073737 1.946081689e-38
-5.397963 -0.87255609 -0.44243616 7.014406855e-39
-5.3589716 -0.79891187 -0.43839142 8.024960249e-39
-5.3821974 -0.73497373 -0.43952397 8.208271108e-39
-4.9298606 -0.61178285 -0.40182698 8.02460432e-39
-4.844872 -0.54097652 -0.39430377 8.393381234e-39
-4.8233733 -0.47873232 -0.3920387 2.194070319e-38
-4.8139896 -0.41821587 -0.3908253 2.075482073e-38
-4.8058376 -0.35814962 -0.38977367 5.267413665e-39
-4.8228035 -0.29994869 -0.3908253 2.044169358e-39
-4.8121839 -0.2400512 -0.38969275 1.952333862e-39
-4.8147678 -0.18098022 -0.38969275 5.542934167e-39
-4.8086543 -0.12168231 -0.3890456 2.689175831e-39
-4.8237386 -0.062841803 -0.39017814 3.425660469e-39
-5.0583763 -0.0037599087 -0.40918842 6.280850931e-39
-6.0198121 0.069635056 -0.48725188 3.237627234e-39
-6.0214939 0.14357406 -0.48749456 1.179884759e-38
-6.0202746 0.21749242 -0.48757547 2.350988562e-38
-6.0141654 0.29120886 -0.48733276 2.350988562e-38
-6.016108 0.3653537 -0.48781815 2.350988562e-38
-5.991291 0.43769661 -0.48620024 2.350988562e-38
-6.0112886 0.51339644 -0.48830351 2.350988562e-38
-5.9966002 0.586348 -0.48765635 2.341803751e-38
-5.8690782 0.6466583 -0.47786808 2.350988562e-38
-5.9635868 0.7312696 -0.48628113 2.148370473e-38
-5.1481824 0.69534338 -0.42027098 2.350988421e-38
-5.1599679 0.76152802 -0.42196977 2.213163571e-38
-5.1590915 0.82621205 -0.42269784 9.508754556e-39
-5.1623139 0.89183849 -0.42383036 5.264124818e-39
-5.1519613 0.95530283 -0.42391127 5.724381298e-39
-5.1603813 1.0225266 -0.42561004 5.724025368e-39
-5.1552463 1.0874228 -0.42625719 5.81693566e-39
-5.2164049 1.1673818 -0.43248612 5.632540197e-39
-5.7729383 1.3666677 -0.48013315 5.724019763e-39
-5.5816774 1.3939019 -0.46557209 5.632182866e-39
-5.570899 1.4640676 -0.46613833 1.070114464e-38
-5.5746102 1.538424 -0.46799892 8.307684826e-39
-5.5553122 1.6067172 -0.46799892 3.965848415e-39
-5.8165917 1.7599806 -0.49186289 4.70449946e-39
-5.8363709 1.8444502 -0.49542224 3.601383296e-39
-5.8416939 1.9252981 -0.49784911 8.117888758e-39
-5.8374238 2.0036387 -0.4995479 6.549842783e-39
-5.8433714 2.0861876 -0.50221741 5.812255324e-39
-5.8425608 2.1671014 -0.50440156 5.813334323e-39
-5.9141192 2.2766099 -0.51297641 5.905890087e-39
-5.9607139 2.3789542 -0.51952893 6.089561079e-39
-5.9605451 2.4641132 -0.52211756 6.640938394e-39
-5.9600959 2.5500166 -0.52478707 1.824277463e-38
-5.9593425 2.6366818 -0.52753747 2.350988562e-38
-5.9491973 2.7199788 -0.52955985 2.350988562e-38
-5.9622359 2.8149161 -0.53376639 2.350988562e-38
-5.9442663 2.896168 -0.53530335 2.350988562e-38
-5.9394464 2.9845643 -0.53813469 2.350988562e-38
-5.9448524 3.0792377 -0.54201764 2.350988562e-38
-5.9453053 3.1726127 -0.54557705 2.350988562e-38
-5.9364953 3.2621374 -0.54840833 2.350988562e-38
-5.7676296 3.2620964 -0.5364359 2.350988562e-38
-5.7030454 3.3185873 -0.53417087 2.350988562e-38
-5.6533399 3.383203 -0.53336191 2.350988562e-38
-5.7641859 3.5463634 -0.54792297 2.350988562e-38
-5.8221574 3.6813033 -0.55771124 2.038424315e-38
-5.4948959 3.5694418 -0.53044969 1.291678108e-38
-5.4191771 3.6155772 -0.5273757 2.056389101e-38
-5.1532364 3.5302346 -0.505615 1.890222709e-38
-5.2603374 3.6993067 -0.52058053 1.705974942e-38
-5.2016158 3.754245 -0.51928622 1.567178291e-38
-5.2288342 3.8723819 -0.52672851 2.323436231e-38
-5.2229776 3.9682219 -0.53101593 3.045352269e-39
-5.4482269 4.2458916 -0.55924827 6.914647016e-39
-5.4393082 4.3472853 -0.56377834 3.505580724e-39
-5.4009666 4.4263453 -0.56539625 2.674387928e-39
-3.9873722 3.3500659 -0.42132261 1.659878669e-39
-3.9225545 3.3785748 -0.4188149 1.569485109e-39
-3.7933986 3.3492513 -0.40935019 2.768374418e-39
-3.6936424 3.3426998 -0.4029595 2.3412962e-38
-3.6311572 3.368113 -0.40061355 2.084665623e-38
-5.1495433 4.896163 -0.57534629 1.449629108e-38
-3.1798327 3.0979109 -0.35895273 1.043326402e-38
-3.1112559 3.1064084 -0.35547426 3.871199112e-40
-3.0206678 3.0908766 -0.34940717 9.594460772e-39
-2.9453781 3.0887494 -0.34503883 2.32343455e-38
-2.8631346 3.0772169 -0.33978069 9.338715395e-40
-2.8124318 3.0980949 -0.33824366 2.489633732e-39
-2.7590075 3.1152081 -0.3363831 2.305961339e-39
-2.6710641 3.0914967 -0.33023509 2.397436701e-39
-2.6194413 3.1080329 -0.3285363 2.581829362e-39
-2.5475707 3.0991249 -0.32424888 2.489633732e-39
-2.4781878 3.0912609 -0.32020414 2.581830763e-39
-2.4136813 3.0876646 -0.31672567 2.765497552e-39
-2.3641346 3.1019862 -0.31518868 2.489632331e-39
-2.2967772 3.0915506 -0.31122482 2.397436701e-39
-2.2417221 3.0960851 -0.30887887 2.305599804e-39
-2.1748428 3.0826304 -0.30483413 2.489992465e-39
-2.1295147 3.0984063 -0.30378249 2.397082173e-39
-2.0364699 3.0422871 -0.29577392 2.12157148e-39
-1.9353402 2.9693298 -0.28630921 2.396719236e-39
-1.9521227 3.0770373 -0.2943987 1.936820087e-39
-2.9226074 4.7354403 -0.45028296 1.936102622e-39
-2.867866 4.7769313 -0.45084924 1.844623056e-39
-2.8060162 4.8065991 -0.45036384 2.121212748e-39
-2.7640305 4.871016 -0.45319518 3.688892984e-39
-2.6973131 4.8923469 -0.45206264 1.033270684e-38
-2.3332639 4.3573771 -0.39980462 2.3509866e-38
-2.2754815 4.3777208 -0.39907655 2.341804311e-38
-2.16731 4.2976165 -0.38928828 2.3509873e-38
-2.1047807 4.3041878 -0.3875086 2.350987581e-38
-1.9980507 4.2161903 -0.37731585 2.350844648e-38
-2.007658 4.3744769 -0.38928828 9.500101538e-39
-2.2554855 5.0783987 -0.4496358 1.520899709e-38
-2.0262959 4.717351 -0.4153364 1.373603622e-38
-4.3424721 10.465606 -0.91825932 1.392550298e-38
-4.1911116 10.461664 -0.91332471 1.447757394e-38
-1.7051032 4.4103265 -0.38241223 6.550932993e-39
-3.5724952 9.5927143 -0.82943684 1.899080737e-38
-3.437696 9.5889177 -0.82539207 1.880605598e-38
-1.0847391 3.1442182 -0.26859325 4.150589999e-39
-1.0651739 3.2150147 -0.27352786 7.19160525e-39
-1.0208166 3.2126434 -0.27223355 6.175286914e-39
-2.0701387 6.8078246 -0.57615525 8.577055029e-39
-1.9828253 6.8202729 -0.57510364 6.915710602e-39
-1.880072 6.7758975 -0.56936008 5.259099761e-39
-0.86602223 3.2742815 -0.27352786 2.402833101e-39
-0.81825382 3.2546937 -0.27102011 2.860942793e-39
-0.77271318 3.2412188 -0.26907864 3.043169046e-39
-0.73112929 3.2426779 -0.26843148 5.627520746e-39
-0.80653709 3.7944849 -0.31348988 1.474586654e-38
-0.770634 3.8578577 -0.31793907 3.788275874e-39
-0.72085595 3.8542869 -0.31688747 3.231877707e-39
-0.68341559 3.9197965 -0.32157934 2.586152368e-39
-0.95927793 5.9352193 -0.48660472 2.681946532e-39
-1.0021527 6.7243891 -0.55043072 2.680868934e-39
-0.91834688 6.7272916 -0.54970264 2.862743461e-39
-0.8367036 6.7459688 -0.55034983 2.584355903e-39
-0.76864517 6.8884683 -0.56118971 3.321558006e-39
-0.41755769 4.2054358 -0.34164125 4.242429699e-39
-0.36720932 4.2251377 -0.34285468 6.91319387e-39
-0.31282276 4.1955309 -0.34010425 2.350914012e-38
-0.25459716 4.0906186 -0.33128673 2.350987721e-38
-0.34513858 6.9296064 -0.56175596 2.350988562e-38
-0.25988972 6.9283404 -0.56135148 2.268336615e-38
-0.17519823 6.9449573 -0.56248403 1.060756593e-38
-0.089857869 6.9386115 -0.5618369 5.350244417e-39
-0.0046941657 6.9202538 -0.56029987 4.797049619e-39
0.049246199 4.2876282 -0.34665674 4.981077942e-39
0.10188225 4.2876973 -0.34673762 5.809037942e-39
0.2517975 6.9645448 -0.5642637 1.807173634e-38
0.33651811 6.9459972 -0.56305027 2.350876318e-38
0.35723054 5.8827944 -0.47697824 7.006104162e-39
0.42247626 5.7835326 -0.46929324 0
0.48449039 5.6736379 -0.46079928 0
0.5437752 5.5621166 -0.45222443 0
0.75427234 6.8439317 -0.55746853 0
0.84038836 6.8519673 -0.55892467 0
0.92521113 6.847065 -0.55941004 0
1.0050844 6.8075867 -0.557145 0
1.0872855 6.7868671 -0.55649781 0
1.1691296 6.7651567 -0.55585068 0
0.75989038 4.0994682 -0.33703026 0
1.3320874 6.7207398 -0.55471814 0
1.4130192 6.6970606 -0.55415189 0
1.4918276 6.6646271 -0.55293846 0
1.6339418 6.9008932 -0.5742138 0
1.7409812 6.9702516 -0.58173698 0
1.8355135 6.9830637 -0.58464921 0
1.92611 6.9782672 -0.58618623 0
2.0032852 6.9253826 -0.58375937 0
2.1083393 6.9670544 -0.58942199 0
2.2032943 6.9710684 -0.59201062 0
2.3005371 6.979475 -0.59508461 0
2.3886027 6.9582596 -0.59573179 0
1.1523359 3.2292962 -0.27692541 0
2.5881262 6.9769721 -0.60260785 0
1.2140437 3.1553984 -0.27304247 0
5.1959486 13.015082 -1.1360281 0
1.3166403 3.1863637 -0.27846244 0
1.0959791 2.5633771 -0.22491008 0
1.119284 2.5315063 -0.22329219 0
1.1614597 2.5420532 -0.22547634 0
1.3190005 2.7952771 -0.24950209 0
1.2217481 2.5092001 -0.22515276 0
5.3909035 10.726 -0.9729442 0
5.4189405 10.459922 -0.95474285 0
5.4145179 10.144682 -0.93193054 0
1.3846912 2.5213451 -0.23210971 0
1.3909854 2.460789 -0.22806498 0
5.3896003 9.2605991 -0.86826634 0
5.3784237 8.9859552 -0.84860891 0
1.4053856 2.285692 -0.21641612 0
1.4098846 2.2312102 -0.21285675 0
1.4110891 2.1736248 -0.20897381 0
1.3928366 2.088994 -0.20242132 0
1.837585 2.6834385 -0.26260704 0
1.4230372 2.0248358 -0.19950911 0
1.4291067 1.9813616 -0.19692048 0
1.4503467 1.9596707 -0.19651601 0
1.4157822 1.8647527 -0.18866922 0
1.3993385 1.79693 -0.18349195 0
1.4069685 1.7617172 -0.18163137 0
1.4177388 1.7312155 -0.18025616 0
1.5100653 1.7983782 -0.18923548 0
1.4812695 1.7208177 -0.18292569 0
1.3683214 1.5508672 -0.16650404 0
1.38056 1.5265703 -0.1656951 0
1.3517293 1.4583722 -0.16003247 0
2.1574192 2.2700591 -0.25281879 0
1.3641533 1.4012067 -0.15736294 0
1.3805411 1.3836559 -0.15728204 0
1.3731735 1.3429312 -0.15453161 0
1.3982081 1.3342308 -0.15550235 0
1.3881991 1.2925377 -0.15259014 0
1.4379127 1.3062124 -0.1563113 0
1.4232333 1.2613833 -0.15299462 0
1.398622 1.2092983 -0.1487072 0
1.3874372 1.1702124 -0.14595677 0
1.3893704 1.1429752 -0.14466245 0
1.3675101 1.0971721 -0.14094129 0
2.3893952 1.8681825 -0.24481019 0
1.3837161 1.0554302 -0.13988966 0
9.5257788 7.0737324 -0.9616189 0
7.6221671 5.5166297 -0.76229417 0
0 0 0 1.171169944e-38
1.3902919 0.95635581 -0.13560224 0
1.4010947 0.93866867 -0.13552134 0
1.4125081 0.92140436 -0.13552134 0
1.4051888 0.89226061 -0.13374165 0
1.4117908 0.87233317 -0.13333718 0
1.3967496 0.83955723 -0.13091034 0
1.4043645 0.82084686 -0.13066766 0
1.3744503 0.78093225 -0.12694649 0
1.4127376 0.77988118 -0.12961602 0
1.4889901 0.79822826 -0.13576402 0
1.3925333 0.72475922 -0.12605666 0
1.5045708 0.75965184 -0.13544044 0
1.4009454 0.68599015 -0.1252477 0
1.380432 0.65509534 -0.12265906 0
1.4128286 0.64932501 -0.12484322 0
1.3942711 0.62021178 -0.12249728 0
1.4228429 0.61209792 -0.12435786 0
1.4090719 0.58580786 -0.12249728 0
1.4402118 0.57810694 -0.12460054 0
1.441619 0.55823469 -0.12411518 0
1.4595701 0.54467475 -0.12508591 0
1.4408103 0.51764363 -0.12290175 0
1.4168991 0.48953274 -0.12031312 0
2.099375 0.69599527 -0.17815289 0
2.1381588 0.67982811 -0.18074152 0
2.2417061 0.68251956 -0.188831 0
2.1790845 0.63438052 -0.18284479 0
2.1156294 0.58788431 -0.17685857 0
1.5656774 0.41476896 -0.13010138 0
0 0 0 1.171169944e-38
2.1048059 0.50223035 -0.17426994 0
2.1176174 0.47789541 -0.1748362 0
1.9361209 0.41214401 -0.15930441 0
2.0006588 0.40024522 -0.16423899 0
1.8839254 0.35298041 -0.15420803 0
1.5817428 0.27651614 -0.12896886 0
1.6086326 0.26089683 -0.13091034 0
1.6659355 0.24920774 -0.13535956 0
1.685657 0.23103417 -0.13673477 0
2.0879884 0.25982353 -0.16941625 0
2.2445617 0.25128663 -0.18195495 0
2.296078 0.22853498 -0.18591879 0
9.9805908 0.86574882 -0.81172085 0
1.4809574 0.11121424 -0.11918059 0
0.67939401 0.04330574 -0.053898498 0
1.4892136 0.075132661 -0.11966596 0
1.4780712 0.056405827 -0.11869522 0
1.4746664 0.038163532 -0.11837164 0
1.4620674 0.019898726 -0.11732001 0
1.403718 0.00080372987 -0.12110304 0
1.4374909 -0.016828155 -0.12406042 0
1.486972 -0.035675403 -0.12840952 0
1.48244 -0.053774606 -0.12806159 0
1.4846536 -0.072108179 -0.12832254 0
1.4846512 -0.090382539 -0.12840952 0
1.4844238 -0.10866769 -0.1284965 0
1.4869487 -0.12721643 -0.12884443 0
1.4852756 -0.145454 -0.12884443 0
1.4863495 -0.16399825 -0.12910537 0
1.4891688 -0.18283401 -0.12954028 0
1.4868131 -0.20109464 -0.12954028 0
1.4862043 -0.21961679 -0.12971425 0
1.4843808 -0.23799622 -0.12980123 0
1.4911646 -0.25789431 -0.13067104 0
1.4849491 -0.27562755 -0.1304101 0
1.4804778 -0.29363534 -0.13032311 0
1.4826109 -0.31301728 -0.13084501 0
1.4747698 -0.33031565 -0.13049708 0
1.4851451 -0.35183707 -0.13180181 0
1.4807158 -0.37003559 -0.13180181 0
1.4847337 -0.39046103 -0.13258465 0
1.4932733 -0.41236761 -0.1338024 0
1.4814023 -0.42872098 -0.13319352 0
1.4788898 -0.4477345 -0.13345447 0
1.4732841 -0.46584904 -0.13345447 0
1.4721866 -0.48545456 -0.13388938 0
1.4642342 -0.50283641 -0.13371541 0
1.4626437 -0.52244365 -0.13415033 0
1.4635935 -0.54312789 -0.13484618 0
1.4744799 -0.56785458 -0.13649884 0
1.4766513 -0.58960247 -0.13736865 0
1.4711457 -0.60844076 -0.13754262 0
1.4736416 -0.63076282 -0.13849941 0
1.4667011 -0.64920259 -0.1385864 0
1.4667766 -0.67088377 -0.13936923 0
1.4638375 -0.69138694 -0.13989112 0
1.4650921 -0.71410215 -0.14084792 0
1.4660083 -0.73695147 -0.14180472 0
1.4630452 -0.75809592 -0.1424136 0
1.4712063 -0.78537995 -0.14415324 0
1.4649493 -0.80529517 -0.14450116 0
1.4653598 -0.82910109 -0.14554495 0
1.4602402 -0.85002917 -0.14606684 0
1.4539722 -0.87044418 -0.14650175 0
1.4550569 -0.8955341 -0.14771949 0
1.4540595 -0.91971529 -0.14876327 0
4.496161 -2.9227755 -0.46676901 0
4.4235029 -2.953388 -0.46294183 0
4.3746028 -2.9989986 -0.46163708 0
4.3268809 -3.0450017 -0.46050632 0
4.2778826 -3.0897031 -0.45928857 0
4.2604537 -3.1573901 -0.46155012 0
4.2523131 -3.2329514 -0.4649424 0
4.2570949 -3.3198128 -0.46990037 0
4.253377 -3.4016731 -0.4740755 0
4.2505965 -3.4858327 -0.47851157 0
4.2509594 -3.5742786 -0.48346955 0
4.276948 -3.6866703 -0.49155885 0
4.283639 -3.7850556 -0.49764758 0
2.4021115 -2.175359 -0.28149763 0
2.379616 -2.2087398 -0.2820195 0
2.3696527 -2.2542562 -0.28410709 0
2.3682003 -2.3089004 -0.28732541 0
2.3615317 -2.3596189 -0.29002184 0
2.360235 -2.4169338 -0.29350111 0
2.3647542 -2.4817808 -0.29785022 0
2.3646412 -2.5434489 -0.3017644 0
2.3673816 -2.6099107 -0.30620047 0
2.3642206 -2.6715944 -0.31002769 0
2.3657565 -2.7403762 -0.31463772 0
2.3665965 -2.810354 -0.31933475 0
2.3597481 -2.8730597 -0.32316193 0
2.3386359 -2.9196858 -0.32516253 0
2.3081489 -2.9552317 -0.32594535 0
2.2910199 -3.0086982 -0.32872877 0
2.0508914 -2.7629879 -0.29898098 0
2.3735368 -3.2811587 -0.3521269 0
2.3164513 -3.2864232 -0.34960443 0
2.2263312 -3.2423275 -0.34195003 0
2.1664419 -3.2395899 -0.33881867 0
2.1297851 -3.2709408 -0.33934057 0
2.0729558 -3.2707438 -0.33664411 0
1.9312311 -3.1314278 -0.31976965 0
1.6795014 -2.799489 -0.28358519 0
1.6319723 -2.7975137 -0.28132364 0
1.5881853 -2.8008635 -0.27967101 0
1.5416797 -2.7983267 -0.27749646 0
1.496887 -2.797709 -0.27558285 0
1.4505069 -2.7928796 -0.27332133 0
1.4098505 -2.7980134 -0.27210358 0
1.3644782 -2.7927251 -0.26992902 0
1.3237116 -2.7957525 -0.26862431 0
1.2805865 -2.7927682 -0.26679769 0
1.2381393 -2.79006 -0.26505804 0
1.196738 -2.7885647 -0.26349238 0
1.1574684 -2.7910769 -0.26236162 0
1.117578 -2.7911975 -0.26105687 0
1.0796535 -2.795408 -0.26018706 0
1.0376263 -2.7879055 -0.25827345 0
0.99964166 -2.7901123 -0.25731665 0
0.9578675 -2.7805049 -0.25531608 0
0.9208594 -2.7835374 -0.25453323 0
0.8812114 -2.7775352 -0.25296757 0
0.84387648 -2.7776542 -0.25201076 0
0.80694944 -2.7782338 -0.25114095 0
0.80178666 -2.8925724 -0.26062196 0
0.74055856 -2.8049064 -0.25183681 0
0.6983276 -2.7828619 -0.24905337 0
0.65997678 -2.7737765 -0.24748771 0
0.62523293 -2.7787507 -0.24722676 0
0.58964014 -2.7793922 -0.24661788 0
0.5539313 -2.7786024 -0.24592203 0
0.51814824 -2.7763772 -0.2451392 0
