# .PCD v0.7 - Point Cloud Data file format
VERSION 0.7
FIELDS x y z intensity ring
SIZE 4 4 4 4 2
TYPE F F F F U
COUNT 1 1 1 1 1
WIDTH 1228
HEIGHT 1
VIEWPOINT 0 0 0 1 0 0 0
POINTS 1228
DATA ascii
2.0637629 -3.1323237 0.44649881 244 11
2.0633843 -3.1533599 0.44857088 248 11
2.0534673 -3.159827 0.44857088 9 11
2.0488901 -3.1746211 0.44975489 63 11
1.634876 -2.546597 0.36006391 63 11
1.6268678 -2.5517204 0.36006391 197 11
1.9564018 -3.1392171 0.44028261 200 11
1.9530286 -3.1559234 0.44176266 240 11
1.9418111 -3.1599245 0.44146663 240 11
1.9259884 -3.1550615 0.43998659 248 11
1.9178997 -3.1628888 0.44028261 244 11
1.9028602 -3.1603732 0.43909857 244 11
1.8941898 -3.1684701 0.43939456 244 11
1.8817048 -3.1701281 0.43880254 248 11
1.8729901 -3.1781666 0.43909857 244 11
1.8629967 -3.1840351 0.43909857 248 11
1.8529844 -3.1898723 0.43909857 244 11
1.839252 -3.1892164 0.43821055 248 11
1.8225359 -3.1845043 0.43673047 248 11
1.8100812 -3.1858914 0.43613845 244 11
1.792786 -3.1785669 0.43436241 248 11
1.7815852 -3.182014 0.43406639 248 11
1.767982 -3.1810746 0.43317837 248 11
1.7567871 -3.1844361 0.43288234 248 11
1.7455888 -3.1877582 0.43258634 248 11
1.7332078 -3.1888573 0.43199432 248 11
1.7208371 -3.1899099 0.4314023 248 11
1.7073112 -3.188725 0.43051428 248 11
1.6955725 -3.1921709 0.43021825 248 11
1.6809309 -3.1886852 0.42903423 248 11
1.6697609 -3.1917472 0.42873824 248 11
1.6580052 -3.1922772 0.42814618 248 11
1.6473957 -3.1949725 0.42785019 248 11
1.6351056 -3.1957028 0.42725816 244 11
1.3904999 -2.7352667 0.36509609 248 11
1.3818998 -2.7396216 0.36509609 252 11
1.3721831 -2.7417254 0.36480007 248 11
1.362466 -2.7437966 0.36450407 252 11
1.3511852 -2.7438352 0.36391205 252 11
1.3414755 -2.7458334 0.36361602 252 11
1.3296188 -2.7433209 0.362728 252 11
1.3188587 -2.7430024 0.36213601 252 11
1.3091745 -2.7448876 0.36183998 252 11
1.2973844 -2.7422435 0.36095196 252 11
1.2877167 -2.7440546 0.36065593 252 11
1.2770109 -2.7435777 0.36006391 252 11
1.2663209 -2.7430611 0.35947192 252 11
1.2556471 -2.7425036 0.35887986 252 11
1.246007 -2.7441709 0.35858387 252 11
1.2353579 -2.7435374 0.35799184 252 11
1.2257292 -2.7451344 0.35769582 252 11
1.214627 -2.7446363 0.35710382 252 11
1.2050093 -2.7461617 0.3568078 252 11
1.1948881 -2.7451677 0.35621578 252 11
1.1857622 -2.7464187 0.35591978 252 11
1.1761631 -2.7478421 0.35562378 252 11
1.1665634 -2.7492344 0.35532776 252 11
1.156013 -2.7483022 0.35473576 252 11
1.1464263 -2.7496257 0.35443974 252 11
1.1368414 -2.750917 0.35414371 252 11
1.1258522 -2.7500677 0.35355172 252 11
1.1162808 -2.7512887 0.35325569 252 11
1.1057968 -2.7501686 0.35266367 252 11
1.0953313 -2.7490101 0.35207164 252 11
1.0848836 -2.7478127 0.35147962 252 11
1.0744542 -2.746577 0.35088763 252 11
1.0640436 -2.7453029 0.35029557 252 11
1.0545325 -2.7463114 0.34999958 252 11
1.0441518 -2.7449639 0.34940755 252 11
1.0346555 -2.7459052 0.34911156 252 11
1.0246881 -2.7469897 0.34881553 252 11
1.0152001 -2.7478647 0.34851953 252 11
1.0057186 -2.7487061 0.34822354 252 11
0.99624139 -2.7495148 0.34792751 252 11
0.98676896 -2.7502913 0.34763148 252 11
0.97695565 -2.7485254 0.34703949 252 11
0.96798092 -2.7490671 0.34674346 252 11
0.95772678 -2.7473979 0.34615147 252 11
0.94748908 -2.7456937 0.34555942 248 11
0.93885875 -2.7486567 0.34555942 252 11
0.92943281 -2.749238 0.34526342 252 11
0.92001271 -2.7497871 0.3449674 252 11
0.91059816 -2.7503045 0.3446714 252 11
0.90118945 -2.7507896 0.3443754 252 11
0.89178693 -2.7512429 0.34407938 252 11
0.88313943 -2.7540307 0.34407938 252 11
0.8730002 -2.7520535 0.34348738 252 11
0.8636145 -2.7524121 0.34319136 252 11
0.85375935 -2.7528849 0.34289533 252 11
0.84438598 -2.7531784 0.34259933 252 11
0.83502144 -2.7534394 0.34230334 252 11
0.82566321 -2.7536683 0.34200731 252 11
0.81631172 -2.753866 0.34171131 252 11
0.80696762 -2.7540319 0.34141529 252 11
0.79763019 -2.7541666 0.34111929 252 11
0.7882998 -2.7542696 0.34082326 252 11
0.77897692 -2.7543411 0.34052727 252 11
0.76966119 -2.7543812 0.34023124 252 11
0.76035321 -2.7543902 0.33993524 252 11
0.75201261 -2.7541063 0.33963925 252 11
0.74224216 -2.7541838 0.33934322 252 11
0.7329548 -2.7541015 0.33904719 252 11
0.72367728 -2.7539876 0.33875123 252 11
0.71440804 -2.7538421 0.3384552 252 11
0.70514649 -2.7536654 0.33815917 252 11
0.69649202 -2.7558672 0.33815917 252 11
0.68664831 -2.7532198 0.33756715 252 11
0.67799532 -2.7553632 0.33756715 252 11
0.66875982 -2.7550652 0.33727115 248 11
0.6595329 -2.7547362 0.33697516 252 11
0.65031433 -2.7543762 0.33667913 252 11
0.6416567 -2.7564063 0.33667913 252 11
0.63197052 -2.7560954 0.3363831 252 11
0.62276918 -2.755645 0.33608711 252 11
0.6135788 -2.7551627 0.33579111 252 11
0.60439789 -2.7546496 0.33549508 252 11
0.5957408 -2.7565351 0.33549508 252 11
0.58657092 -2.7559628 0.33519906 252 11
0.57790977 -2.757792 0.33519906 252 11
0.56875253 -2.7571602 0.33490309 252 11
0.56008136 -2.7564025 0.33460706 252 11
0.55142248 -2.758147 0.33460706 252 11
0.54229349 -2.7548971 0.33401504 252 11
0.53269506 -2.7542405 0.33371904 252 11
0.5235858 -2.7534599 0.33342302 252 11
0.51493287 -2.7550912 0.33342302 252 11
0.50583607 -2.754252 0.33312702 252 11
0.49976745 -2.7704957 0.33490309 252 11
0.49148443 -2.774498 0.33519906 252 11
0.4865053 -2.7980554 0.33786318 63 11
0.49312329 -2.8951521 0.34940755 232 11
0.5024184 -3.0093877 0.36302403 199 11
0.49845216 -3.0452683 0.36716813 204 11
0.49118981 -3.0615339 0.3689442 204 11
0.48722085 -3.0998666 0.37338436 220 11
0.48043233 -3.1210208 0.37575245 204 11
0.41822901 -2.7663984 0.332831 220 11
0.40953594 -2.767699 0.332831 232 11
0.40014702 -2.7640557 0.332239 244 11
0.39112353 -2.7628398 0.33194298 248 11
0.38178086 -2.7591343 0.33135098 248 11
0.37311229 -2.7603195 0.33135098 248 11
0.36428639 -2.7564909 0.33075893 248 11
0.35531932 -2.7551577 0.3304629 248 11
0.34666187 -2.7562604 0.3304629 248 11
0.3377088 -2.7548709 0.33016694 248 11
0.32905266 -2.7559183 0.33016694 248 11
0.31991181 -2.7569942 0.33016694 248 11
0.3109802 -2.7555177 0.32987091 248 11
0.30232185 -2.7564812 0.32987091 248 11
0.29366082 -2.7574174 0.32987091 248 11
0.2847513 -2.755856 0.32957488 248 11
0.27609265 -2.756737 0.32957488 248 11
0.2674306 -2.7575905 0.32957488 248 11
0.25854397 -2.7559447 0.32927889 248 11
0.24988486 -2.7567434 0.32927889 248 11
0.24122295 -2.757515 0.32927889 248 11
0.23255706 -2.7582595 0.32927889 248 11
0.22341257 -2.7590144 0.32927889 248 11
0.21474195 -2.7597032 0.32927889 248 11
0.2060709 -2.7603643 0.32927889 248 11
0.19739816 -2.760998 0.32927889 248 11
0.18856378 -2.7591274 0.32898286 248 11
0.17989469 -2.759706 0.32898286 248 11
0.17108037 -2.7577794 0.32868686 248 11
0.16289289 -2.7582762 0.32868686 248 11
0.15470837 -2.7587476 0.32868686 248 11
0.14604504 -2.7592185 0.32868686 248 11
0.13737588 -2.7596638 0.32868686 248 11
0.12881102 -2.7625618 0.32898286 252 11
0.12013174 -2.7629528 0.32898286 252 11
0.11145096 -2.7633166 0.32898286 248 11
0.10276908 -2.763653 0.32898286 248 11
0.094084896 -2.7639627 0.32898286 248 11
0.084922314 -2.7642586 0.32898286 248 11
0.076235533 -2.7645121 0.32898286 252 11
0.067550719 -2.7647381 0.32898286 252 11
0.058864586 -2.7649367 0.32898286 248 11
0.050177868 -2.7651079 0.32898286 248 11
0.041463688 -2.7627699 0.32868686 248 11
0.032783873 -2.7628865 0.32868686 248 11
0.024103729 -2.7629759 0.32868686 248 11
0.015423669 -2.7630379 0.32868686 248 11
0.0067431363 -2.7630727 0.32868686 248 11
-0.0019374656 -2.7630804 0.32868686 248 11
-0.010619344 -2.763061 0.32868686 248 11
-0.01980605 -2.7654917 0.32898286 252 11
-0.028017424 -2.7654223 0.32898286 252 11
-0.036222626 -2.765327 0.32898286 248 11
-0.044905595 -2.7651987 0.32898286 244 11
-0.053592619 -2.7650437 0.32898286 248 11
-0.062279116 -2.7648618 0.32898286 248 11
-0.07089103 -2.7621715 0.32868686 248 11
-0.079649851 -2.764416 0.32898286 248 11
-0.088244699 -2.7616713 0.32868686 248 11
-0.097017452 -2.7638609 0.32898286 248 11
-0.10570001 -2.7635424 0.32898286 248 11
-0.11438285 -2.7631972 0.32898286 248 11
-0.12354168 -2.7628019 0.32898286 248 11
-0.13222289 -2.7624006 0.32898286 248 11
-0.14090069 -2.7619715 0.32898286 248 11
-0.14972065 -2.7639935 0.32927889 248 11
-0.15855536 -2.7659874 0.32957488 248 11
-0.16724399 -2.7654755 0.32957488 248 11
-0.17609881 -2.7674134 0.32987091 248 11
-0.18479215 -2.7668464 0.32987091 248 11
-0.19366644 -2.768728 0.33016694 248 11
-0.20217294 -2.7656307 0.32987091 248 11
-0.21086055 -2.764982 0.32987091 248 11
-0.21954411 -2.7643056 0.32987091 248 11
-0.22774859 -2.7636428 0.32987091 248 11
-0.23642771 -2.7629132 0.32987091 248 11
-0.24533591 -2.7646286 0.33016694 248 11
-0.25401983 -2.7638443 0.33016694 248 11
-0.26294637 -2.7655027 0.3304629 248 11
-0.27188587 -2.7671325 0.33075893 248 11
-0.28057754 -2.7662649 0.33075893 248 11
-0.28953484 -2.7678378 0.33105496 248 11
-0.29850483 -2.7693815 0.33135098 248 11
-0.30720341 -2.76843 0.33135098 248 11
-0.3161906 -2.7699163 0.33164695 248 11
-0.32519153 -2.771374 0.33194298 248 11
-0.33437628 -2.7702799 0.33194298 248 11
-0.34339499 -2.7716782 0.332239 248 11
-0.35210088 -2.7705858 0.332239 248 11
-0.36080298 -2.7694662 0.332239 248 11
-0.36983976 -2.7707782 0.332535 248 11
-0.37854266 -2.7696028 0.332535 248 11
-0.38759518 -2.7708566 0.332831 248 11
-0.39665964 -2.7720814 0.33312702 248 11
-0.40573531 -2.7732766 0.33342302 248 11
-0.41396675 -2.7720606 0.33342302 248 11
-0.42257324 -2.773273 0.33371904 248 11
-0.43167081 -2.7743826 0.33401504 248 11
-0.44078353 -2.7754629 0.33431104 248 11
-0.4495008 -2.7740643 0.33431104 248 11
-0.45862815 -2.7750862 0.33460706 248 11
-0.46776766 -2.7760782 0.33490309 248 11
-0.4786877 -2.784291 0.33608711 248 11
-0.48743469 -2.7827735 0.33608711 244 11
-0.49840221 -2.7934387 0.33756715 248 11
-0.50853544 -2.7991815 0.3384552 240 11
-0.58277494 -3.1439435 0.3804886 232 11
-0.59218025 -3.1396594 0.38019261 199 11
-0.6006124 -3.1304748 0.37930456 216 11
-0.56423676 -2.8492467 0.34555942 199 11
-0.56519872 -2.8085527 0.34082326 212 11
-0.57351232 -2.804333 0.34052727 248 11
-0.58129245 -2.7976606 0.33993524 252 11
-0.59056294 -2.7957172 0.33993524 248 11
-0.59881485 -2.7914231 0.33963925 252 11
-0.60811895 -2.7919517 0.33993524 248 11
-0.6169498 -2.7925568 0.34023124 248 11
-0.62523258 -2.790714 0.34023124 252 11
-0.634552 -2.7911546 0.34052727 248 11
-0.64331764 -2.7891474 0.34052727 248 11
-0.65265352 -2.7895274 0.34082326 248 11
-0.66247916 -2.7897608 0.34111929 248 11
-0.67124212 -2.7876658 0.34111929 248 11
-0.68059462 -2.7879527 0.34141529 252 11
-0.68995559 -2.788208 0.34171131 248 11
-0.69932455 -2.7884324 0.34200731 248 11
-0.70808136 -2.7862215 0.34200731 248 11
-0.71745914 -2.7863851 0.34230334 248 11
-0.7262094 -2.7841172 0.34230334 248 11
-0.73559576 -2.7842195 0.34259933 248 11
-0.74498969 -2.7842906 0.34289533 248 11
-0.75439161 -2.7843297 0.34319136 248 11
-0.76380283 -2.7843375 0.34348738 248 11
-0.77370191 -2.7841783 0.34378335 248 11
-0.78380954 -2.7865083 0.3443754 248 11
-0.79255986 -2.7840321 0.3443754 248 11
-0.80199867 -2.7839112 0.3446714 248 11
-0.81144416 -2.7837584 0.3449674 248 11
-0.8204152 -2.7837169 0.34526342 248 11
-0.82867116 -2.7812703 0.34526342 248 11
-0.83812553 -2.7810278 0.34555942 248 11
-0.84759122 -2.7807527 0.34585544 248 11
-0.85706347 -2.7804458 0.34615147 248 11
-0.86654168 -2.7801065 0.34644744 248 11
-0.87678355 -2.7821 0.34703949 248 11
-0.88676345 -2.7815397 0.34733549 248 11
-0.89704025 -2.7834597 0.34792751 252 11
-0.90733606 -2.7853427 0.34851953 248 11
-0.91765255 -2.7871883 0.34911156 248 11
-0.9279893 -2.7889967 0.34970358 252 11
-0.93834662 -2.7907674 0.35029557 252 11
-0.94791692 -2.790153 0.3505916 248 11
-0.95667762 -2.7871616 0.3505916 248 11
-0.96542913 -2.7841423 0.3505916 248 11
-0.97500032 -2.7834353 0.35088763 248 11
-0.98457682 -2.7826955 0.35118359 248 11
-0.99416 -2.7819231 0.35147962 248 11
-1.0050799 -2.7832747 0.35207164 252 11
-1.0155391 -2.784761 0.35266367 252 11
-1.0260159 -2.7862096 0.35325569 248 11
-1.0351541 -2.7854764 0.35355172 248 11
-1.0442908 -2.7847142 0.35384771 248 11
-1.0534368 -2.7839217 0.35414371 248 11
-1.0639663 -2.7852302 0.35473576 248 11
-1.0736129 -2.7841864 0.35503173 248 11
-1.0832635 -2.7831099 0.35532776 248 11
-1.0929193 -2.7820001 0.35562378 248 11
-1.1039828 -2.782969 0.35621578 248 11
-1.1136538 -2.7817879 0.3565118 248 11
-1.1233259 -2.7805738 0.3568078 248 11
-1.1339468 -2.7816215 0.35739982 248 11
-1.1445856 -2.78263 0.35799184 248 11
-1.1542816 -2.7813098 0.35828787 248 11
-1.1649481 -2.7822423 0.35887986 248 11
-1.1756319 -2.7831352 0.35947192 248 11
-1.1853508 -2.7817082 0.35976788 248 11
-1.1960614 -2.7825248 0.36035994 248 11
-1.2057927 -2.7810273 0.36065593 248 11
-1.2165309 -2.7817669 0.36124796 248 11
-1.2277663 -2.782253 0.36183998 248 11
-1.2385383 -2.7829101 0.36243197 248 11
-1.2493242 -2.7835279 0.36302403 248 11
-1.2596431 -2.7843242 0.36361602 248 11
-1.2699718 -2.7850847 0.36420807 248 11
-1.2803216 -2.7858076 0.36480007 248 11
-1.2906013 -2.7837958 0.36509609 248 11
-1.3025198 -2.7864623 0.36598411 248 11
-1.3134003 -2.7868402 0.36657614 248 11
-1.3242958 -2.7871766 0.36716813 248 11
-1.3352064 -2.7874727 0.36776018 248 11
-1.346132 -2.7877274 0.3683522 248 11
-1.3570721 -2.7879407 0.3689442 248 11
-1.3691279 -2.7903378 0.36983225 248 11
-1.3801042 -2.7904654 0.37042427 248 11
-1.3910947 -2.7905509 0.37101626 248 11
-1.4032218 -2.7928095 0.37190431 248 11
-1.4142492 -2.7928083 0.37249634 248 11
-1.426909 -2.7947247 0.37338436 248 11
-1.4379705 -2.7946346 0.37397638 248 11
-1.449044 -2.7945025 0.3745684 248 11
-1.4589735 -2.7921326 0.3748644 248 11
-1.4689019 -2.7897282 0.37516043 248 11
-1.7632378 -3.2939405 0.44472277 244 11
-1.7806851 -3.3014731 0.44649881 244 11
-1.7916682 -3.2983522 0.44679484 248 11
-1.8056124 -3.2992303 0.44768286 244 11
-1.8166013 -3.2960284 0.44797885 244 11
-1.8305795 -3.2968059 0.44886687 244 11
-1.8445826 -3.2975273 0.44975489 248 11
-1.8586082 -3.2981935 0.45064294 244 11
-1.8726562 -3.2988036 0.45153099 248 11
-1.8879658 -3.3015096 0.45271501 244 11
-1.9013915 -3.2995262 0.45330706 248 11
-1.91676 -3.302109 0.45449108 248 11
-1.9296428 -3.3003497 0.4550831 248 11
-1.9450644 -3.3028131 0.45626715 248 11
-1.9579763 -3.3009491 0.45685917 248 11
-1.9734541 -3.3032911 0.45804322 244 11
-1.986394 -3.3013215 0.45863521 248 11
-2.0019262 -3.3035419 0.45981926 248 11
-2.016192 -3.3035827 0.46070731 248 11
-2.0317843 -3.3056769 0.46189132 248 11
-2.0474098 -3.3077054 0.46307537 248 11
-2.0617487 -3.3075659 0.46396339 248 11
-2.076107 -3.3073683 0.46485141 244 11
-2.0910604 -3.3067489 0.46573943 244 11
-2.1054566 -3.3064337 0.46662748 244 11
-2.1171782 -3.3018894 0.46692351 244 11
-2.1310258 -3.3018374 0.46781152 244 11
-2.1441033 -3.2992823 0.46840355 10 11
-2.1902611 -3.301641 0.47165966 178 11
-2.213084 -3.3132877 0.47432375 216 11
-2.2276545 -3.3124874 0.47521177 232 11
-2.2422423 -3.3116276 0.47609979 244 11
-2.2526352 -3.3045671 0.47609979 244 11
-2.2644165 -3.2995167 0.47639582 244 11
-2.2705207 -3.2862713 0.4755078 240 11
-2.2722957 -3.2669179 0.47373173 232 11
-2.2731042 -3.2451613 0.47165966 204 11
-2.2718 -3.2218053 0.4692916 212 11
-2.2689273 -3.1964703 0.46662748 212 11
-2.2673666 -3.1732011 0.46425942 212 11
-2.2671373 -3.1519842 0.46218732 212 11
-2.265336 -3.128794 0.45981926 212 11
-2.2648787 -3.1076486 0.45774719 212 11
-2.2657855 -3.0885341 0.45597112 220 11
-2.263634 -3.065459 0.45360303 212 11
-2.2643318 -3.0464051 0.45182699 216 11
-2.2629156 -3.0257871 0.44975489 216 11
-2.2649145 -3.0087695 0.44827488 216 11
-2.2638206 -2.9878197 0.44620278 216 11
-2.2656403 -2.9708459 0.44472277 216 11
-2.2643406 -2.9499607 0.44265068 216 11
-2.2644553 -2.9310734 0.44087464 216 11
-2.2644744 -2.9122143 0.43909857 220 11
-2.2643974 -2.8933842 0.43732253 224 11
-2.2657657 -2.876529 0.43584245 224 11
-2.2670519 -2.8596933 0.43436241 224 11
-2.2729158 -2.8486857 0.43377036 224 11
-2.2787354 -2.8376689 0.43317837 228 11
-2.2912621 -2.83395 0.43377036 228 11
-2.3033018 -2.8305776 0.43436241 240 11
-2.3184972 -2.8309913 0.43554646 248 11
-2.3321338 -2.8294256 0.43643448 248 11
-2.3489647 -2.8316143 0.43791452 244 11
-2.3642356 -2.8318238 0.43909857 248 11
-2.3811331 -2.8338618 0.44057861 248 11
-2.398068 -2.8358202 0.44205868 248 11
-2.4134223 -2.8358157 0.4432427 244 11
-2.4288013 -2.835742 0.44442675 244 11
-2.4442027 -2.8355999 0.44561079 244 11
-2.4586382 -2.836247 0.44679484 244 11
-2.4724493 -2.8341055 0.44768286 244 11
-2.4879131 -2.8337674 0.44886687 244 11
-2.5050485 -2.8352153 0.45034695 244 11
-2.5222201 -2.8365815 0.45182699 248 11
-2.5382538 -2.8355827 0.45301104 248 11
-2.5571518 -2.8386314 0.45478708 244 11
-2.5744202 -2.8397555 0.45626715 248 11
-2.5917208 -2.8407986 0.45774719 248 11
-2.6090536 -2.8417614 0.45922723 248 11
-2.624727 -2.8408251 0.46041128 244 11
-2.6404216 -2.8398173 0.46159533 244 11
-2.6561346 -2.8387399 0.46277937 244 11
-2.6718674 -2.8375912 0.46396339 244 11
-2.687619 -2.8363714 0.46514744 244 11
-2.7051075 -2.8368723 0.46662748 244 11
-2.7226264 -2.8372915 0.46810755 244 11
-2.7406654 -2.8371518 0.46958756 248 11
-2.7582431 -2.8374031 0.47106764 244 11
-2.7758486 -2.8375714 0.47254768 244 11
-2.7929881 -2.8381443 0.47402775 244 11
-2.8119016 -2.8404026 0.47580379 244 11
-2.8268509 -2.8395545 0.47698781 244 11
-2.845829 -2.8416514 0.47876388 244 11
-2.8650656 -2.839915 0.48024395 244 11
-2.8828392 -2.8395865 0.48172396 244 11
-2.9006407 -2.8391731 0.48320407 244 11
-2.9184661 -2.8386767 0.48468408 244 11
-2.9363172 -2.8380964 0.48616412 244 11
-2.9559896 -2.8391457 0.48794022 244 11
-2.9738958 -2.8383911 0.48942024 244 11
-2.9936328 -2.8392544 0.49119627 244 11
-3.0152166 -2.8417201 0.4932684 244 11
-3.0355203 -2.8418579 0.49504444 244 11
-3.0535457 -2.8407352 0.49652448 244 11
-3.0734186 -2.8412108 0.49830058 244 11
-3.0914922 -2.8399138 0.4997806 240 11
-3.1095881 -2.8385313 0.50126064 240 11
-3.1313918 -2.840389 0.50333267 240 11
-3.1532371 -2.8421385 0.50540483 240 11
-3.1769788 -2.8454285 0.50777286 232 11
-3.2026298 -2.850244 0.51043695 216 11
-3.2264774 -2.8532872 0.51280504 232 11
-3.2461441 -2.8535039 0.51458108 244 11
-3.2663331 -2.8530633 0.51635712 240 11
-3.2846754 -2.850899 0.51783723 236 11
-3.303035 -2.8486488 0.51931727 228 11
-3.3233023 -2.8479209 0.52109331 236 11
-3.3454916 -2.8486984 0.52316535 236 11
-3.3696175 -2.8509631 0.52553344 244 11
-3.3937905 -2.8531055 0.52790159 240 11
-3.4161017 -2.8535354 0.52997363 236 11
-3.440362 -2.8554354 0.53234172 220 11
-3.4608293 -2.8540616 0.53411776 232 11
-3.485172 -2.8557229 0.53648585 224 11
-3.5081239 -2.8550878 0.53855789 232 11
-3.5325508 -2.8565004 0.54092598 224 11
-3.5570192 -2.8577888 0.54329401 232 11
-3.5834737 -2.8604965 0.5459581 220 11
-3.6080327 -2.8615265 0.54832619 228 11
-3.6326323 -2.8624322 0.55069429 228 11
-3.6572733 -2.8632104 0.55306238 228 11
-3.6819551 -2.8638618 0.55543041 228 11
-3.706677 -2.8643863 0.5577985 228 11
-3.7309415 -2.8654323 0.5601666 228 11
-3.7552409 -2.8663628 0.56253469 228 11
-3.7800756 -2.8665173 0.56490272 220 11
-3.8069386 -2.8680289 0.56756687 228 11
-3.8318565 -2.8679183 0.5699349 216 11
-3.8588071 -2.8691552 0.57259899 224 11
-3.8838027 -2.8687806 0.57496709 216 11
-3.9128437 -2.8712053 0.57792717 224 11
-3.9404302 -2.8713303 0.58059132 224 11
-3.9695723 -2.8734481 0.58355141 216 11
-3.9947305 -2.87252 0.5859195 216 11
-4.0239668 -2.8743405 0.58887959 216 11
-4.0532546 -2.8760047 0.59183973 220 11
-4.0886884 -2.8817897 0.59568781 212 11
-4.1221619 -2.885962 0.59923995 220 11
-4.157743 -2.8913643 0.60308808 212 11
-4.1893077 -2.8937585 0.60634416 198 11
-4.2147779 -2.8917828 0.60871226 198 11
-4.23206 -2.8841009 0.60989624 197 11
-4.2498341 -2.8756006 0.61108035 197 11
-4.2629762 -2.8649929 0.61167234 194 11
-4.2843609 -2.8598297 0.61344844 191 11
-4.3094039 -2.8580437 0.61581647 194 11
-4.3386226 -2.8588591 0.61877662 191 11
-4.37046 -2.8601217 0.62203264 191 11
-4.4002666 -2.8598609 0.62499279 191 11
-4.4301147 -2.8594413 0.62795287 191 11
-4.4620957 -2.8601983 0.63120902 191 11
-4.4920297 -2.8594503 0.6341691 191 11
-4.5245991 -2.8590798 0.63742518 191 11
-4.5567212 -2.8593159 0.64068133 191 11
-4.5872731 -2.8572733 0.64364141 191 11
-4.6189823 -2.8579686 0.64689749 190 11
-4.6512332 -2.8576906 0.65015364 190 11
-4.6835275 -2.8572392 0.65340978 192 11
-4.7179909 -2.8578928 0.65696186 188 11
-4.7503743 -2.8570848 0.660218 186 11
-4.7827983 -2.8560998 0.66347402 186 11
-4.8152652 -2.8549385 0.66673017 186 11
-4.8396974 -2.8477402 0.66880226 186 11
-4.8679342 -2.8437529 0.67146635 186 11
-5.581974 -3.1657186 0.76441348 160 11
-5.5913453 -3.1491396 0.76441348 185 11
-5.7985754 -3.2414572 0.79135036 198 11
-5.8065567 -3.2220247 0.79105437 208 11
-5.8122988 -3.2013772 0.79046232 224 11
-5.8157859 -3.1795409 0.78957427 224 11
-5.8170109 -3.156533 0.78839028 224 11
-5.8181486 -3.1335487 0.78720623 224 11
-5.8192 -3.1105886 0.78602219 224 11
-5.8201628 -3.0876541 0.78483814 224 11
-5.8210411 -3.0647414 0.78365409 224 11
-5.8218317 -3.0418565 0.78247005 224 11
-5.8225374 -3.0189948 0.78128606 224 11
-5.8236756 -2.9951472 0.78010195 228 11
-5.8219934 -2.9712105 0.77862197 228 11
-5.8224325 -2.9484353 0.77743787 228 11
-5.8205667 -2.9245753 0.77595788 228 11
-5.8230543 -2.9029648 0.77506977 228 11
-5.8210115 -2.8791714 0.77358979 228 11
-5.8233356 -2.8576016 0.77270174 220 11
-5.82335 -2.8349617 0.77151769 224 11
-5.8232784 -2.8123498 0.77033365 224 11
-5.8231225 -2.7897666 0.76914966 216 11
-5.8251257 -2.768275 0.76826161 216 11
-5.8270531 -2.7467957 0.76737356 216 11
-5.8289013 -2.7253346 0.76648557 204 11
-5.8306727 -2.7038875 0.76559752 204 11
-5.8346248 -2.6834893 0.76500547 199 11
-5.8385062 -2.6630933 0.76441348 198 11
-5.8445792 -2.6437199 0.76411748 196 11
-5.8483233 -2.6233199 0.76352543 195 11
-5.856535 -2.6049349 0.76352543 194 11
-5.890996 -2.5760121 0.76589352 191 11
-5.9081769 -2.5614245 0.76707751 188 11
-5.9276066 -2.5477338 0.76855761 188 11
-5.9881458 -2.5513895 0.77536583 183 11
-6.0331893 -2.546906 0.78010195 196 11
-6.1007452 -2.5527501 0.78779823 192 11
-6.13627 -2.5449388 0.79135036 184 11
-6.1695075 -2.5359879 0.79460645 190 11
-6.2119522 -2.5305841 0.79904658 195 11
-6.2406025 -2.5193853 0.80171067 63 11
-6.2840199 -2.4910567 0.8052628 194 11
-6.2964387 -2.4731114 0.80585486 198 11
-6.3064909 -2.454216 0.80615085 208 11
-6.31143 -2.4346004 0.80585486 199 11
-6.3190455 -2.4147632 0.80585486 199 11
-6.3242784 -2.3940227 0.80555886 204 11
-5.8317175 -2.1875806 0.74191672 220 11
-5.8362327 -2.1683884 0.74162072 228 11
-5.8383532 -2.1483374 0.74102867 228 11
-6.0877991 -2.2179444 0.77181375 200 11
-6.3213801 -2.2801378 0.80052668 220 11
-6.3261728 -2.2594361 0.80023068 220 11
-6.3238735 -2.236254 0.79904658 204 11
-6.3289084 -2.214458 0.79875064 208 11
-6.3475709 -2.1986053 0.80023068 208 11
-6.3689227 -2.1823518 0.80200672 208 11
-6.4035964 -2.1729691 0.80555886 224 11
-6.4410005 -2.1630645 0.80940694 212 11
-6.4736905 -2.1513896 0.81266308 220 11
-6.4969339 -2.1364408 0.81473511 220 11
-6.5007725 -2.0925515 0.81355113 195 11
-6.5144138 -2.0743659 0.81443912 192 11
-6.516161 -2.0524058 0.81384706 196 11
-6.5178347 -2.0304556 0.81325513 199 11
-6.5221562 -2.0081069 0.81295907 216 11
-6.5213065 -1.985446 0.81207103 220 11
-6.5179987 -1.9621034 0.81088704 220 11
-6.5169888 -1.9395052 0.80999899 220 11
-6.515902 -1.9169315 0.80911094 220 11
-6.5171227 -1.8950731 0.80851895 220 11
-6.51827 -1.8732258 0.80792689 220 11
-6.5193443 -1.8513916 0.8073349 220 11
-6.5203462 -1.829566 0.80674285 220 11
-6.521276 -1.8077542 0.80615085 220 11
-6.5224423 -1.7848192 0.80555886 220 11
-6.5208259 -1.7623861 0.80467081 220 11
-6.5215311 -1.7406189 0.80407876 220 11
-6.5245662 -1.7194936 0.80378282 220 11
-6.5251284 -1.6977465 0.80319077 220 11
-6.5256195 -1.6760098 0.80259871 220 11
-6.5284452 -1.6548959 0.80230272 220 11
-6.5287938 -1.6331809 0.80171067 220 11
-6.5314817 -1.6120709 0.80141473 228 11
-6.5316887 -1.5903753 0.80082268 216 11
-6.5345097 -1.5681361 0.80052668 224 11
-6.5345716 -1.5464619 0.79993463 224 11
-6.5321417 -1.5242463 0.79904658 224 11
-6.5320587 -1.5026107 0.79845464 224 11
-6.5319033 -1.4809936 0.79786259 224 11
-6.5316763 -1.4593909 0.79727054 224 11
-6.5313783 -1.4378041 0.79667854 224 11
-6.5310097 -1.4162338 0.79608655 224 11
-6.5305691 -1.3946813 0.7954945 224 11
-6.5300589 -1.3731427 0.79490244 224 11
-6.5294762 -1.351624 0.79431045 224 11
-6.5288253 -1.3301196 0.79371846 224 11
-6.5307631 -1.3079832 0.79342246 224 11
-6.5299687 -1.2865044 0.79283041 224 11
-6.5291018 -1.2650485 0.79223835 224 11
-6.5281649 -1.2436092 0.79164636 224 11
-6.5295997 -1.2226412 0.79135036 224 11
-6.5285239 -1.2012312 0.79075837 224 11
-6.5298214 -1.1802791 0.79046232 228 11
-6.5310526 -1.1593277 0.79016632 228 11
-6.5322161 -1.1383833 0.78987032 228 11
-6.5333128 -1.1174413 0.78957427 228 11
-6.5343418 -1.0965053 0.78927827 220 11
-6.5353055 -1.0755694 0.78898233 228 11
-6.5388346 -1.0538949 0.78898233 228 11
-6.5421143 -1.0333465 0.78898233 228 11
-5.3012252 -0.82241398 0.63890523 236 11
-5.3013282 -0.80538774 0.63860929 244 11
-5.2989202 -0.78800869 0.63801724 248 11
-5.2939973 -0.77030176 0.63712919 248 11
-5.2914743 -0.75297683 0.63653713 248 11
-5.2888951 -0.73567551 0.6359452 244 11
-5.2887197 -0.71872818 0.63564914 244 11
-5.2884908 -0.70178509 0.63535315 248 11
-5.2883253 -0.68393409 0.63505715 248 11
-5.2879848 -0.66701037 0.6347611 248 11
-5.2875896 -0.65009636 0.6344651 244 11
-5.2871404 -0.63319147 0.6341691 244 11
-5.2866373 -0.61629575 0.63387311 248 11
-5.2885475 -0.59968531 0.63387311 248 11
-5.2879372 -0.58279961 0.63357711 248 11
-5.2922111 -0.56644428 0.63387311 248 11
-5.2914944 -0.54956394 0.63357711 248 11
-5.2931948 -0.53293854 0.63357711 248 11
-5.2948432 -0.51630539 0.63357711 248 11
-5.2964396 -0.49966803 0.63357711 248 11
-5.2955937 -0.48188522 0.63328105 248 11
-5.2970819 -0.46524525 0.63328105 248 11
-5.2960434 -0.44839594 0.63298506 248 11
-5.2974257 -0.43175673 0.63298506 248 11
-5.2987561 -0.41511199 0.63298506 248 11
-5.2975583 -0.39828226 0.63268906 248 11
-5.2987838 -0.38163728 0.63268906 248 11
-5.2974792 -0.36482441 0.632393 248 11
-5.2985992 -0.34817863 0.632393 248 11
-5.2971888 -0.33138204 0.63209701 248 11
-5.2982039 -0.31473857 0.63209701 248 11
-5.2991672 -0.2980904 0.63209701 248 11
-5.3001251 -0.28051952 0.63209701 248 11
-5.300981 -0.26386628 0.63209701 248 11
-5.3042641 -0.24732168 0.632393 248 11
-5.3050146 -0.23065764 0.632393 248 11
-5.3057132 -0.21398883 0.632393 244 11
-6.6070743 -0.22218834 0.78750223 199 11
-6.6151843 -0.20164466 0.78839028 54 11
-6.6207485 -0.18098852 0.78898233 14 11
-6.6287017 -0.16150965 0.78987032 40 11
-6.6415606 -0.14209084 0.79135036 48 11
-6.6618099 -0.12271553 0.79371846 63 11
-6.6671262 -0.10185353 0.79431045 45 11
-6.6823077 -0.081063315 0.79608655 68 11
-6.682529 -0.060069527 0.79608655 11 11
-6.6876497 -0.03909592 0.79667854 74 11
-6.6877418 -0.016922103 0.79667854 74 11
-6.6976924 0.0041114469 0.79786259 81 11
-6.6976461 0.025154727 0.79786259 95 11
-6.7024989 0.046237048 0.79845464 92 11
-6.704803 0.067322664 0.79875064 79 11
-6.7020764 0.088349551 0.79845464 77 11
-6.7042475 0.10944923 0.79875064 79 11
-6.7038708 0.13050939 0.79875064 79 11
-6.7034273 0.15157147 0.79875064 82 11
-6.7078815 0.17276651 0.79934263 86 11
-6.7122331 0.19515872 0.79993463 97 11
-6.7115874 0.21624725 0.79993463 101 11
-6.7059135 0.23714787 0.79934263 104 11
-6.7051353 0.25821427 0.79934263 116 11
-6.721652 0.2800284 0.80141473 106 11
-6.7207394 0.301144 0.80141473 106 11
-6.7519913 0.32385558 0.8052628 10 11
-6.7635751 0.3409971 0.80674285 97 11
-6.7897358 0.36374936 0.80999899 9 11
-6.7836027 0.38478917 0.80940694 11 11
-6.7972274 0.40701181 0.81118304 9 11
-6.7686658 0.42660528 0.80792689 88 11
-6.7597823 0.44853991 0.80703884 88 11
-6.7385311 0.46836549 0.80467081 91 11
-6.7296004 0.48898131 0.80378282 89 11
-6.7206059 0.50954556 0.80289477 88 11
-6.7239203 0.53105581 0.80348676 11 11
-6.7246928 0.55238301 0.80378282 77 11
-6.7229242 0.57350844 0.80378282 75 11
-6.7210894 0.594625 0.80378282 76 11
-6.7191882 0.61573726 0.80378282 75 11
-6.7147498 0.63660675 0.80348676 72 11
-6.7126012 0.65886664 0.80348676 71 11
-3.0943842 0.31736371 0.37012824 123 11
-3.0810335 0.32573372 0.3686482 186 11
-3.0750613 0.3348572 0.36805618 236 11
-3.0691228 0.34341353 0.36746415 224 11
-3.0631602 0.35193405 0.36687216 200 11
-3.0547094 0.36012265 0.36598411 208 11
-3.0487008 0.36857039 0.36539209 208 11
-3.0449328 0.37889287 0.36509609 208 11
-3.041198 0.38866016 0.36480007 208 11
-3.0399623 0.39821467 0.36480007 208 11
-3.0362372 0.40742418 0.36450407 216 11
-3.0398581 0.41765442 0.36509609 204 11
-3.0385313 0.42720181 0.36509609 212 11
-3.0396299 0.43710855 0.36539209 204 11
-3.0406966 0.44702503 0.36568812 220 11
-3.0392773 0.4565756 0.36568812 232 11
-3.0304706 0.46496558 0.36480007 200 11
-3.0265441 0.47409093 0.36450407 208 11
-3.0176902 0.48239392 0.36361602 208 11
-3.0112627 0.49105752 0.36302403 208 11
-3.0071702 0.50061888 0.362728 208 11
-3.0055828 0.51006669 0.362728 208 11
-3.0015211 0.51907402 0.36243197 208 11
-2.9998755 0.52850109 0.36243197 208 11
-2.9982004 0.53792298 0.36243197 212 11
-2.9990318 0.54727548 0.362728 212 11
-2.9973948 0.55617154 0.362728 212 11
-3.0005078 0.56651938 0.36332002 248 11
-3.0011492 0.57642084 0.36361602 255 11
-2.9993236 0.58584577 0.36361602 255 11
-2.9974682 0.59526569 0.36361602 255 11
-2.9931521 0.60418135 0.36332002 255 11
-2.9911318 0.61409998 0.36332002 255 11
-2.9867599 0.62297976 0.36302403 255 11
-2.9847879 0.63235998 0.36302403 255 11
-2.9827867 0.64173329 0.36302403 255 11
-2.9807556 0.65110165 0.36302403 255 11
-2.9786956 0.6604622 0.36302403 255 11
-11.350997 2.6990731 1.3904744 9 11
-11.320746 2.7294657 1.3878103 20 11
-11.312116 2.765017 1.3878103 14 11
-6.7211857 1.6618639 0.82479948 31 11
-6.718339 1.683579 0.82509547 60 11
-6.7178268 1.7059085 0.82568753 63 11
-6.714838 1.7276242 0.82598352 63 11
-6.7144837 1.7488047 0.82657552 9 11
-6.7137556 1.7711608 0.82716757 38 11
-6.7105556 1.7928889 0.82746357 42 11
-6.7144709 1.8165705 0.82864755 50 11
-6.7159109 1.8396336 0.8295356 12 11
-6.7304983 1.8892145 0.83279175 22 11
-6.7337432 1.9142537 0.83397579 31 11
-6.7348495 1.9374712 0.83486384 27 11
-6.7311125 1.959316 0.83515984 11 11
-6.727304 1.9811581 0.83545583 17 11
-6.7234244 2.0029957 0.83575189 23 11
-6.7242255 2.026268 0.83663988 23 11
-6.7225742 2.0488365 0.83723187 26 11
-6.7255883 2.0728877 0.83841598 23 11
-6.7403626 2.1006863 0.84108001 27 11
-6.7360964 2.1226013 0.84137601 26 11
-6.7435794 2.1482983 0.84315211 90 11
-6.7387795 2.1714103 0.8434481 123 11
-6.7154107 2.1871636 0.84137601 163 11
-6.6825829 2.1996717 0.83811992 186 11
-6.6944733 2.2269535 0.84048802 192 11
-6.6827402 2.2463846 0.83989596 8 11
-6.6920953 2.2729809 0.84196806 13 11
-6.7060418 2.3012805 0.84463215 11 11
-6.7105002 2.3264194 0.84611219 12 11
-6.7242327 2.354907 0.84877628 16 11
-6.7261581 2.3793452 0.84996033 8 11
-6.7233224 2.4021437 0.85055238 11 11
-6.7297454 2.4283295 0.85232842 9 11
-6.7267456 2.4511671 0.85292047 8 11
-6.725996 2.4748719 0.85380846 13 11
-6.7317061 2.5023706 0.85558456 30 11
-6.7331023 2.5270104 0.85676855 30 11
-6.7320905 2.5508006 0.8576566 31 11
-6.7402639 2.5781708 0.85972863 36 11
-6.7367601 2.6011288 0.86032069 10 11
-6.7447367 2.6286137 0.86239272 13 11
-6.7502971 2.6552651 0.86416882 16 11
-6.7672868 2.6865716 0.86742491 10 11
-6.7726307 2.7133789 0.86920094 16 11
-6.7916732 2.7458501 0.87275308 14 11
-6.7967958 2.7728205 0.87452918 16 11
-6.801816 2.7998502 0.87630522 20 11
-6.7993674 2.8252549 0.87719327 30 11
-6.8041849 2.8523831 0.87896931 10 11
-6.802547 2.8754714 0.87985736 31 11
-6.8048906 2.9017119 0.88133734 51 11
-6.8089037 2.9301662 0.88311338 49 11
-6.8110418 2.9565063 0.88459349 59 11
-6.8130832 2.9828825 0.88607353 63 11
-6.8172951 3.0103071 0.88784957 63 11
-6.8214016 3.037791 0.88962567 10 11
-6.8276658 3.0663474 0.8916977 69 11
-6.8315573 3.0939467 0.89347374 70 11
-6.8353424 3.1216011 0.89524984 9 11
-6.8412757 3.1503515 0.89732194 73 11
-6.8448448 3.1781197 0.89909798 76 11
-6.850553 3.207 0.90117002 78 11
-6.8539042 3.2348831 0.90294605 78 11
-6.8632989 3.2672224 0.90561014 83 11
-6.8641829 3.2941573 0.90709025 84 11
-6.8694315 3.3232958 0.90916234 9 11
-6.8678756 3.349226 0.91034633 85 11
-6.8595462 3.3718827 0.91064233 86 11
-6.8400278 3.3889966 0.90945834 99 11
-6.8138132 3.4026811 0.9073863 99 11
-6.7859588 3.4139349 0.90501815 123 11
-6.7558861 3.4239256 0.90235412 163 11
-6.7473049 3.4462628 0.90265006 174 11
-6.7402515 3.4708948 0.90324211 183 11
-6.7535324 3.5046682 0.90649819 189 11
-6.7688661 3.5397105 0.91005033 169 11
-6.7884359 3.5772033 0.91419446 161 11
-6.7946906 3.6078513 0.91656256 159 11
-6.8030071 3.6397476 0.91922665 159 11
-6.7980895 3.6646438 0.92011464 159 11
-6.7930813 3.6895483 0.92100269 161 11
-6.7879858 3.7144542 0.92189074 164 11
-6.7849712 3.7405677 0.92307478 166 11
-6.7818608 3.7666972 0.92425883 169 11
-6.7786508 3.7928488 0.92544281 179 11
-6.7746792 3.8201931 0.92662692 179 11
-6.7712717 3.846375 0.92781091 179 11
-6.767766 3.8725727 0.92899501 179 11
-6.7598643 3.896301 0.92958701 179 11
-6.754025 3.9212668 0.930475 181 11
-6.7459559 3.944977 0.93106705 181 11
-6.737802 3.9686785 0.9316591 188 11
-6.7281303 3.9899244 0.9319551 187 11
-6.720521 4.0124211 0.93254709 187 11
-6.7121358 4.0360737 0.93313909 188 11
-6.7036648 4.05972 0.93373114 188 11
-6.6951141 4.0833502 0.93432319 191 11
-6.6885924 4.1082706 0.93521118 191 11
-6.6819806 4.1331916 0.93609923 191 11
-6.6766582 4.1605868 0.93728322 193 11
-6.671957 4.1868339 0.93846726 193 11
-6.6692548 4.2144175 0.93994731 195 11
-6.6664453 4.2420259 0.94142741 195 11
-6.6677027 4.2723451 0.94349945 195 11
-6.6646686 4.3000135 0.94497949 195 11
-6.6636057 4.3290625 0.94675559 196 11
-6.6624255 4.3581462 0.94853163 196 11
-6.6631994 4.3886342 0.95060372 196 11
-6.6617818 4.4177928 0.95237976 196 11
-6.6623073 4.4483709 0.9544518 196 11
-6.6647658 4.480382 0.95681995 196 11
-6.660141 4.509428 0.95829993 196 11
-6.6561861 4.5373373 0.95977998 196 11
-6.6480331 4.562448 0.96066797 194 11
-4.5973401 3.1722381 0.66525012 196 11
-4.5716171 3.174509 0.66288209 199 11
-4.5413051 3.1745892 0.65992194 216 11
-4.5171185 3.1788118 0.65784991 216 11
-4.4889054 3.1800354 0.65518582 216 11
-4.4667835 3.1854498 0.65340978 216 11
-4.454741 3.1980143 0.65311372 208 11
-4.4466801 3.2134531 0.65340978 216 11
-4.4305501 3.2230127 0.65252173 199 11
-4.4184027 3.235445 0.65222567 212 11
-4.3882647 3.2345395 0.64926559 198 11
-4.3581743 3.233479 0.6463055 194 11
-4.3162198 3.2233241 0.64156932 198 11
-4.2718315 3.2121837 0.63653713 63 11
-4.2320743 3.2030573 0.63209701 189 11
-4.1958041 3.1974561 0.62824893 189 11
-4.1666298 3.194747 0.62528878 173 11
-4.1448007 3.1986969 0.62351274 191 11
-4.128859 3.2071214 0.6226247 196 11
-4.1050959 3.2093453 0.62055266 197 11
-4.0813608 3.2114503 0.61848056 195 11
-4.0518231 3.2088044 0.61552048 199 11
-4.016531 3.2013469 0.61167234 197 11
-3.9876812 3.197681 0.60871226 228 11
-3.9525456 3.1898713 0.60486412 208 11
-3.9207926 3.1856918 0.60160804 216 11
-3.8858278 3.177511 0.59775984 224 11
-3.8566928 3.1738863 0.59479976 236 11
-3.8276198 3.1701105 0.59183973 224 11
-3.8081248 3.1741512 0.59035963 216 11
-3.7886434 3.1781003 0.58887959 224 11
-3.7710671 3.1835644 0.58769554 232 11
-3.749718 3.1857269 0.5859195 212 11
-3.7265098 3.1861684 0.5838474 228 11
-3.7033346 3.1864974 0.58177537 228 11
-3.6820686 3.1883395 0.57999927 216 11
-3.664562 3.1933527 0.57881522 224 11
-3.6483667 3.2005596 0.57792717 232 11
-3.6382918 3.2120092 0.57792717 220 11
-3.6257703 3.2224 0.57763118 232 11
-3.6180396 3.2348039 0.57792717 54 11
-6.6999049 6.0410151 1.0749278 195 11
-6.6919136 6.0720544 1.0767039 190 11
-6.6911154 6.1098094 1.079664 171 11
-6.6810193 6.1392069 1.0811441 162 11
-6.6809802 6.1758795 1.0841042 156 11
-6.7123804 6.2442398 1.0923924 11 11
-6.788671 6.3553286 1.108081 9 11
-6.8083768 6.4141216 1.1145931 10 11
-6.7906709 6.4400806 1.1151851 12 11
-6.6896544 6.5058436 1.1119291 90 11
-6.6691809 6.5268297 1.1119291 13 11
-6.8798642 6.9486623 1.1652108 11 11
-6.9101686 7.0233898 1.1740912 11 11
-6.9596338 7.1209073 1.1865236 10 11
-6.9873261 7.1944366 1.1951079 11 11
-6.667377 6.9512339 1.1477462 158 11
-6.6574793 6.9847403 1.1498184 160 11
-6.6474404 7.0182476 1.1518905 163 11
-6.6350837 7.0469904 1.1533705 174 11
-6.619689 7.075057 1.1545546 183 11
-6.5957417 7.093997 1.1542585 189 11
-6.5633264 7.1037345 1.1524825 180 11
-6.525887 7.1078424 1.1498184 180 11
-6.4834719 7.1062794 1.1462662 180 11
-6.4427967 7.1063619 1.1430101 180 11
-6.400527 7.1044126 1.1394579 180 11
-6.358748 7.1052265 1.1362019 180 11
-6.3182712 7.1047435 1.1329458 182 11
-6.2795033 7.105938 1.1299857 182 11
-6.2391539 7.1050911 1.1267296 182 11
-6.1988735 7.1040592 1.1234734 182 11
-6.1602831 7.1047263 1.1205134 182 11
-6.1217532 7.1052179 1.1175534 182 11
-6.0832772 7.1055393 1.1145931 183 11
-6.0448632 7.1056876 1.1116331 183 11
-6.0065079 7.1056643 1.108673 185 11
-5.9682102 7.1054735 1.1057129 185 11
-5.9315648 7.1070175 1.1030488 185 11
-5.8933859 7.1064882 1.1000887 186 11
-5.8540258 7.1068125 1.0971286 186 11
-5.8187804 7.1068487 1.0944644 188 11
-5.7839108 7.109674 1.0920964 188 11
-5.7475243 7.1104159 1.0894324 188 11
-5.7127419 7.1129375 1.0870643 188 11
-5.6764517 7.1133709 1.0844002 188 11
-5.6402183 7.1136436 1.0817361 188 11
-5.6025028 7.1118112 1.078776 188 11
-5.5694394 7.1156807 1.0767039 188 11
-5.5382109 7.1242971 1.0752239 188 11
-5.5157986 7.1416645 1.0752239 189 11
-5.5023885 7.1707835 1.0769999 182 11
-5.4948578 7.2077966 1.0799601 184 11
-5.491641 7.250771 1.0838081 184 11
-5.4926753 7.2997565 1.0885444 184 11
-5.4949427 7.3508062 1.0935764 181 11
-5.496944 7.4019418 1.0986086 181 11
-5.4986739 7.4531655 1.1036408 181 11
-5.4986749 7.5024662 1.108377 181 11
-5.4998784 7.5538478 1.113409 179 11
-5.4920979 7.5932336 1.1166652 179 11
-5.4842372 7.6356192 1.1202174 179 11
-6.7357178 9.511611 1.3889943 159 11
-6.7505145 9.5892906 1.3975787 144 11
-6.738822 9.6369171 1.4014268 132 11
-6.7212424 9.6763992 1.4040909 122 11
-6.704886 9.7179146 1.407051 90 11
-6.7443962 9.8413801 1.4218515 13 11
-6.7776155 9.956975 1.435468 9 11
-6.7685142 10.011144 1.440204 87 11
-6.7425599 10.040606 1.4413881 85 11
-6.7316175 10.092736 1.4458283 88 11
-6.7227473 10.15228 1.4511564 13 11
-6.7632093 10.354448 1.4739492 9 11
-6.7751698 10.444409 1.4837176 83 11
-6.7570896 10.488613 1.4869736 10 11
-6.7575068 10.562094 1.4943739 83 11
-6.7389174 10.606331 1.4976301 82 11
-6.749218 10.696768 1.5073984 13 11
-6.7879519 10.909782 1.5313752 80 11
-6.7744889 10.964864 1.5361114 9 11
-6.7646418 11.026313 1.5417355 9 11
-6.7564058 11.086634 1.5473596 79 11
-6.7690272 11.186427 1.5583121 10 11
-6.7753944 11.272453 1.5674883 11 11
-6.7760739 11.35885 1.5763687 79 11
-6.7769928 11.44205 1.584953 10 11
-6.78122 11.531796 1.5944252 9 11
-6.7824554 11.617386 1.6033056 79 11
-6.7844563 11.705251 1.6124818 10 11
-6.7863941 11.798725 1.6222502 79 11
-6.7873993 11.886845 1.6314265 79 11
-6.7879133 11.97509 1.6406028 77 11
-6.7867289 12.061287 1.6494831 76 11
-6.7838559 12.145429 1.6580673 75 11
-6.7901421 12.247044 1.6690197 74 11
-6.7827096 12.324884 1.6767161 75 11
-6.7653427 12.385365 1.6820443 73 11
-6.7370353 12.426207 1.6847084 71 11
-6.7073631 12.464804 1.6870763 9 11
-6.6728377 12.494578 1.6882604 69 11
-6.6323919 12.513286 1.6879643 69 11
-6.5920129 12.537409 1.6882604 35 11
-6.5445676 12.542644 1.6861883 39 11
-6.5039878 12.560938 1.6858923 10 11
-1.6446391 3.2047656 0.42873824 198 11
-1.631762 3.2029853 0.42785019 63 11
-1.6211385 3.2055938 0.42755416 194 11
-1.6104863 3.2137346 0.42785019 177 11
-1.604776 3.2276826 0.42903423 193 11
-1.5968114 3.2371674 0.42962626 216 11
-1.5909715 3.2510998 0.4308103 232 11
-1.5829036 3.2605555 0.4314023 232 11
-1.571583 3.263272 0.4311063 224 11
-1.5602592 3.2659504 0.4308103 236 11
-1.5468234 3.2640963 0.42992228 200 11
-1.5344621 3.2644403 0.42933023 208 11
-1.5210735 3.2624853 0.42844221 224 11
-1.5077094 3.2604797 0.42755416 236 11
-1.4938103 3.2586796 0.42666614 208 11
-1.4825439 3.2610946 0.42637011 224 11
-1.4692525 3.2589371 0.42548209 228 11
-1.4559878 3.2567291 0.42459407 198 11
-1.441754 3.2521968 0.42341003 208 11
-1.4285532 3.2498837 0.42252201 199 11
-1.415383 3.2475188 0.42163396 240 11
-1.4041965 3.2496672 0.42133799 232 11
-1.3926044 3.2492516 0.42074594 244 11
-1.382392 3.2536089 0.42074594 244 11
-1.3712064 3.2556453 0.42044994 240 11
-1.3609724 3.2599368 0.42044994 240 11
-1.3497813 3.2618999 0.42015392 240 11
-1.3395277 3.266124 0.42015392 244 11
-1.3283335 3.2680135 0.41985792 232 11
-1.3180593 3.2721708 0.41985792 200 11
-1.3068604 3.2739868 0.41956192 220 11
-1.2956619 3.2757657 0.4192659 208 11
-1.2838961 3.2777278 0.41896987 224 11
-5.1005197 13.360857 1.704541 25 11
-5.0734191 13.4163 1.7095731 63 11
-5.0347171 13.441474 1.7107571 63 11
-4.9967756 13.468863 1.7122371 63 11
-4.9561481 13.489156 1.7128292 63 11
-4.9137492 13.504659 1.7128292 63 11
-4.8721352 13.522367 1.7131252 63 11
-4.8304639 13.539944 1.7134212 63 11
-4.7903743 13.562078 1.7143093 9 11
-4.7582927 13.59967 1.7172694 68 11
-4.7268386 13.639539 1.7205255 10 11
-4.6928105 13.680155 1.7237816 69 11
-4.6514053 13.707395 1.7252617 69 11
-4.6122561 13.733711 1.7267417 69 11
-4.5690904 13.748133 1.7267417 10 11
-4.52742 13.767138 1.7273337 10 11
-4.4856825 13.786016 1.7279258 68 11
-4.4461408 13.811858 1.7294058 68 11
-4.405736 13.835221 1.7305899 63 11
-4.36374 13.853729 1.7311819 63 11
-4.3209286 13.869742 1.7314779 63 11
-4.276608 13.880875 1.7311819 9 11
-4.2264867 13.872864 1.7285178 63 11
-4.1800208 13.876565 1.7273337 63 11
-4.1290369 13.873691 1.7252617 63 11
-4.0777445 13.860393 1.7220055 63 11
-4.0431709 13.904129 1.7258537 63 11
-4.0131493 13.964487 1.7317739 63 11
-3.9780469 14.008078 1.7356219 9 11
-3.9373665 14.032459 1.737102 11 11
-3.9005399 14.071078 1.7403581 63 11
-3.8633444 14.099356 1.7424302 9 11
-3.8273137 14.132327 1.7450943 63 11
-3.7905781 14.173061 1.7486465 63 11
-3.7548845 14.218508 1.7527906 63 11
-3.7208092 14.271078 1.7578228 52 11
-3.6858308 14.321169 1.7625588 27 11
-3.6475275 14.359148 1.765815 40 11
-3.6084127 14.394621 1.768775 46 11
-3.5673356 14.422757 1.7708472 49 11
-3.5261168 14.450777 1.7729193 51 11
-3.4830186 14.471438 1.7741033 54 11
-3.4390075 14.49982 1.7761753 10 11
-3.3956859 14.520225 1.7773594 48 11
-3.3528347 14.542917 1.7788393 63 11
-3.3076816 14.555799 1.7791355 63 11
-3.2613919 14.563696 1.7788393 63 11
-3.2118871 14.556899 1.7767674 63 11
-3.1624641 14.549934 1.7746953 63 11
-3.101207 14.486964 1.765815 11 11
-3.0439479 14.440758 1.7590067 58 11
-2.9865005 14.391906 1.7519025 59 11
-2.9392886 14.391488 1.7507185 11 11
-2.9004824 14.419618 1.7530866 9 11
-2.8696933 14.489047 1.7604868 11 11
-2.8407142 14.583284 1.7708472 63 11
-2.8039565 14.653586 1.7782475 63 11
-2.7611074 14.679403 1.7803196 63 11
-2.7208152 14.719743 1.7841675 63 11
-2.6891382 14.80883 1.7939359 68 11
-2.6569283 14.897862 1.8037043 11 11
-2.3107939 13.438812 1.6252103 71 11
-2.2693877 13.450902 1.6258023 109 11
-1.9056872 11.505766 1.3898823 9 11
-1.8695337 11.511696 1.3898823 72 11
-2.1436882 13.479047 1.6266903 71 11
-2.1005597 13.48081 1.6260983 70 11
-2.0547345 13.480338 1.6252103 10 11
-2.0116465 13.481815 1.6246183 11 11
-2.1786311 14.930129 1.7983761 11 11
-2.1327586 14.944274 1.7992642 42 11
-2.0864775 14.955819 1.7998562 36 11
-2.0408187 14.972139 1.8010402 41 11
-1.9931239 14.973555 1.8004482 44 11
-1.9502714 14.991714 1.8019283 44 11
-1.9042287 14.985121 1.8004482 61 11
-1.8571489 14.991027 1.8004482 63 11
-1.8097441 14.994322 1.8001522 63 11
-1.7640716 15.012261 1.8016322 68 11
-1.7177439 15.025129 1.8025203 10 11
-1.6729857 15.052659 1.8051844 63 11
-1.6254375 15.080338 1.8078485 63 11
-1.5793293 15.097716 1.8093284 63 11
-1.5341319 15.124833 1.8119925 68 11
-1.4887798 15.151814 1.8146566 63 11
-1.4437323 15.183602 1.8179128 63 11
-1.3966964 15.195479 1.8188008 68 11
-1.3513486 15.226994 1.8220569 63 11
-1.3035079 15.231163 1.8220569 58 11
-1.2562608 15.242606 1.8229449 10 11
-1.2085657 15.248951 1.8232409 63 11
-1.1612018 15.2601 1.824129 63 11
-1.1130778 15.261197 1.8238329 63 11
-1.0631527 15.27471 1.825017 63 11
-1.0154871 15.282929 1.825609 63 11
-0.96778226 15.290998 1.8262011 63 11
-0.92254776 15.296282 1.826497 63 11
-0.87772268 15.308866 1.8276811 63 11
-0.8302865 15.323941 1.829161 63 11
-0.78251797 15.333911 1.8300492 63 11
-0.73503858 15.351171 1.8318251 63 11
-0.6872474 15.363325 1.8330092 63 11
-0.63917702 15.37037 1.8336012 63 11
-0.59088945 15.372302 1.8336012 63 11
-0.54276597 15.379045 1.8341933 63 11
-0.49176359 15.380759 1.8341933 11 11
-0.443721 15.392154 1.8353772 63 11
-0.39548251 15.398436 1.8359693 63 11
-0.34732455 15.409529 1.8371533 63 11
-0.29910082 15.420472 1.8383374 63 11
-0.25085029 15.433746 1.8398175 9 11
-0.20244306 15.441905 1.8407055 63 11
-0.15404773 15.454876 1.8421856 63 11
-0.10549704 15.455284 1.8421856 15 11
-0.056960046 15.460504 1.8427775 63 11
-0.0083930148 15.455643 1.8421856 63 11
0.040176544 15.458075 1.8424816 63 11
0.091454186 15.460338 1.8427775 63 11
0.137375 15.464964 1.8433696 9 11
0.18335427 15.471934 1.8442577 63 11
0.22913489 15.463876 1.8433696 59 11
0.27758762 15.455633 1.8424816 56 11
0.32581362 15.439794 1.8407055 48 11
0.3741287 15.43125 1.8398175 63 11
0.42232519 15.420073 1.8386334 18 11
0.47361419 15.423549 1.8392254 123 11
0.13259032 4.1560755 0.49504444 163 11
0.14574112 4.1581192 0.49534047 198 11
0.15900542 4.162601 0.49593243 236 11
0.17208101 4.1620812 0.49593243 27 11
0.69523233 14.977789 1.7871277 58 11
0.74279332 14.985447 1.7883118 168 11
0.79026246 14.990477 1.7891998 8 11
0.70111614 12.581349 1.5017742 8 11
0.74063569 12.579084 1.5017742 70 11
0.95779055 13.353488 1.5956093 70 11
0.9999218 13.35289 1.5959053 71 11
1.041862 13.349683 1.5959053 123 11
0.7857641 9.734292 1.1637309 163 11
0.81401652 9.7244968 1.1628428 22 11
0.84459829 9.7418213 1.1652108 6 11
0.87395227 9.7442169 1.1658028 10 11
0.81910437 7.7817173 0.93225104 157 11
0.83405685 7.6927414 0.92189074 170 11
0.84790432 7.5988145 0.91093838 180 11
0.830504 7.2410359 0.8683129 195 11
0.84713662 7.1766205 0.86091268 192 11
0.86181349 7.1098633 0.85321647 196 11
0.40881476 3.3338842 0.39972925 197 11
0.42087582 3.3448937 0.40120929 232 11
0.43138298 3.3435547 0.40120929 232 11
0.4422178 3.3446431 0.40150532 200 11
0.45238125 3.3407786 0.40120929 220 11
0.46252483 3.3368831 0.40091327 212 11
0.47157848 3.325587 0.39972925 198 11
0.48202628 3.3240886 0.39972925 208 11
0.49209413 3.3201036 0.39943323 208 11
0.50404054 3.3283541 0.40061727 224 11
0.51410627 3.3243027 0.40032127 224 11
0.52652419 3.3349245 0.40180132 236 11
0.53498358 3.3210065 0.40032127 198 11
0.54500449 3.3168612 0.40002525 208 11
0.55249357 3.2980042 0.39795318 224 11
0.5615766 3.2889154 0.39706516 199 11
0.56943709 3.2699256 0.3949931 216 11
0.57971013 3.2681205 0.3949931 224 11
0.58817619 3.2565179 0.39380905 236 11
0.59794617 3.252214 0.39351302 244 11
0.60723186 3.2454424 0.39292103 244 11
0.61884129 3.2508297 0.39380905 248 11
0.63001043 3.2537408 0.39440104 63 11
0.69382548 3.354887 0.40772152 199 11
0.70176989 3.3405523 0.40624148 194 11
0.70857936 3.3213487 0.40416938 198 11
0.71425134 3.2947373 0.40120929 196 11
0.7175597 3.260983 0.39736116 224 11
0.7190035 3.2225246 0.39292103 232 11
0.72188812 3.191344 0.38936889 232 11
0.72516096 3.1625941 0.38611278 204 11
0.72935975 3.1335976 0.3828567 220 11
0.73320794 3.0638235 0.3748644 198 11
0.74342287 3.0639155 0.37516043 208 11
0.74943727 3.0471137 0.37338436 195 11
0.755961 3.0327117 0.37190431 199 11
0.76363611 3.0231075 0.37101626 195 11
0.77000886 3.0086803 0.36953625 25 11
0.6638723 2.5669153 0.31536645 164 11
0.67193276 2.564817 0.31536645 166 11
0.78486031 2.9149537 0.35917589 158 11
0.78524786 2.8788404 0.35503173 197 11
0.79161114 2.8667977 0.35384771 200 11
