# .PCD v0.7 - Point Cloud Data file format
VERSION 0.7
FIELDS x y z intensity ring
SIZE 4 4 4 4 2
TYPE F F F F U
COUNT 1 1 1 1 1
WIDTH 1211
HEIGHT 1
VIEWPOINT 0 0 0 1 0 0 0
POINTS 1211
DATA ascii
1.0131918 0.17660323 -0.14627847 179 3
1.0113014 0.17302811 -0.14590119 179 3
1.01184 0.16985035 -0.14590119 179 3
1.0123686 0.16667093 -0.14590119 179 3
1.0104432 0.16312242 -0.14552389 179 3
1.0109507 0.15994693 -0.14552389 179 3
1.0114483 0.15677033 -0.14552389 179 3
1.0119358 0.15359172 -0.14552389 179 3
1.0099649 0.15007539 -0.14514659 179 3
1.0104314 0.14690146 -0.14514659 179 3
1.010888 0.14372656 -0.14514659 179 3
1.0113345 0.14055026 -0.14514659 179 3
1.0142235 0.13767846 -0.14552389 179 3
1.0146511 0.13449073 -0.14552389 179 3
1.0150685 0.13130265 -0.14552389 179 3
1.015476 0.12811327 -0.14552389 179 3
1.0134169 0.12464888 -0.14514659 179 3
1.0137836 0.12163762 -0.14514659 179 3
1.0141599 0.11845455 -0.14514659 179 3
1.0120685 0.11501576 -0.14476931 179 3
1.0124249 0.1118354 -0.14476931 179 3
1.0127712 0.1086544 -0.14476931 179 3
1.0155689 0.10569967 -0.14514659 179 3
1.0158972 0.10250525 -0.14514659 179 3
1.0162297 0.099141002 -0.14514659 179 3
1.0165361 0.09594813 -0.14514659 179 3
1.0143687 0.092556961 -0.14476931 179 3
1.0146401 0.089543879 -0.14476931 179 3
1.0149156 0.086357832 -0.14476931 179 3
1.0151819 0.083168663 -0.14476931 179 3
1.0154382 0.079979166 -0.14476931 179 3
1.0156845 0.07678888 -0.14476931 179 3
1.0159206 0.073597834 -0.14476931 179 3
1.0161469 0.070405573 -0.14476931 179 3
1.016363 0.067212619 -0.14476931 179 3
1.0165691 0.064019486 -0.14476931 179 3
1.0167652 0.06082572 -0.14476931 179 3
1.0169513 0.05763087 -0.14476931 179 3
1.0171274 0.054435935 -0.14476931 179 3
1.0148239 0.051143009 -0.14439201 179 3
1.0174494 0.048044492 -0.14476931 179 3
1.0151253 0.044765133 -0.14439201 179 3
1.0152608 0.041575998 -0.14439201 179 3
1.0153865 0.038386457 -0.14439201 179 3
1.0155021 0.035196532 -0.14439201 179 3
1.0156076 0.032006241 -0.14439201 179 3
1.0157027 0.028816577 -0.14439201 179 3
1.0157849 0.025799287 -0.14439201 179 3
1.0158602 0.022610005 -0.14439201 179 3
1.0159262 0.019418187 -0.14439201 179 3
1.0159823 0.016226664 -0.14439201 179 3
1.0160282 0.01303498 -0.14439201 179 3
1.0105058 0.0077322912 0.11970387 184 11
1.0130074 0.0045416309 0.11999987 184 11
1.0130167 0.001359157 0.11999987 185 11
1.013016 -0.0018233291 0.11999987 185 11
1.0130053 -0.0050057992 0.11999987 185 11
1.0129845 -0.0081882197 0.11999987 185 11
1.0129538 -0.011370557 0.11999987 185 11
1.0129131 -0.014552784 0.11999987 185 11
1.012862 -0.017733241 0.11999987 185 11
1.0128057 -0.0207421 0.11999987 184 11
1.0127351 -0.023921721 0.11999987 184 11
1.0126549 -0.027103199 0.11999987 184 11
1.0125648 -0.030284412 0.11999987 184 11
1.0124646 -0.033465322 0.11999987 184 11
1.0123545 -0.036645904 0.11999987 184 11
1.017193 -0.040075574 0.12059189 184 11
1.0170621 -0.043270979 0.12059189 184 11
1.0193995 -0.046606258 0.12088791 184 11
1.0192481 -0.049808558 0.12088791 184 11
1.0190866 -0.053010363 0.12088791 184 11
1.0189151 -0.056211662 0.12088791 184 11
1.0187334 -0.059412386 0.12088791 184 11
1.0185415 -0.062610894 0.12088791 184 11
1.0183519 -0.065636449 0.12088791 184 11
1.0181402 -0.068833247 0.12088791 184 11
1.0179189 -0.072031483 0.12088791 184 11
1.0176876 -0.075229011 0.12088791 184 11
1.0174463 -0.078425787 0.12088791 184 11
1.0171949 -0.081621811 0.12088791 184 11
1.0169334 -0.084817007 0.12088791 184 11
1.016662 -0.088011377 0.12088791 184 11
1.0163804 -0.091204874 0.12088791 184 11
1.016089 -0.09439747 0.12088791 184 11
1.0182556 -0.097853355 0.12118391 184 11
1.0179433 -0.10105181 0.12118391 184 11
1.0176207 -0.10424928 0.12118391 184 11
1.0172882 -0.1074457 0.12118391 184 11
1.0194104 -0.11093629 0.12147992 184 11
1.0190569 -0.11413831 0.12147992 184 11
1.0186932 -0.11733922 0.12147992 184 11
1.0183196 -0.12053894 0.12147992 184 11
1.0179359 -0.12373748 0.12147992 184 11
1.0175421 -0.12693481 0.12147992 184 11
1.0171384 -0.13013089 0.12147992 184 11
1.0167243 -0.13332401 0.12147992 184 11
1.0163246 -0.13634391 0.12147992 184 11
1.0183467 -0.13989832 0.12177594 184 11
1.0179021 -0.14309686 0.12177594 184 11
1.0174476 -0.14629398 0.12177594 184 11
1.016983 -0.14948964 0.12177594 184 11
1.0165083 -0.15268385 0.12177594 184 11
1.0184731 -0.15627944 0.12207195 184 11
1.0179771 -0.15947828 0.12207195 184 11
1.0174711 -0.16267556 0.12207195 184 11
1.016955 -0.16587123 0.12207195 184 11
1.0188732 -0.16949889 0.12236796 184 11
1.0183356 -0.17269893 0.12236796 184 11
1.0202296 -0.17634626 0.12266397 184 11
1.0196704 -0.17954883 0.12266397 184 11
1.021572 -0.18304116 0.12295997 184 11
1.0209917 -0.1862458 0.12295997 184 11
1.0204349 -0.18927813 0.12295997 184 11
1.0198014 -0.19265883 0.12295997 184 11
1.0216238 -0.19635616 0.12325599 184 11
1.0210019 -0.19956473 0.12325599 184 11
1.0203699 -0.20277129 0.12325599 184 11
1.0197279 -0.20597589 0.12325599 184 11
1.0190758 -0.20917845 0.12325599 184 11
1.0208381 -0.21291153 0.12355199 184 11
1.0201643 -0.21611755 0.12355199 184 11
1.0219015 -0.21986932 0.12384801 184 11
1.0212058 -0.22307861 0.12384801 184 11
1.0204998 -0.22628403 0.12384801 184 11
1.019824 -0.22931474 0.12384801 184 11
1.0215126 -0.23309314 0.12414401 184 11
1.0207754 -0.23630115 0.12414401 184 11
1.0224385 -0.24009985 0.12444003 184 11
1.0216793 -0.24331075 0.12444003 184 11
1.0209098 -0.24651922 0.12444003 184 11
1.0201303 -0.2497253 0.12444003 184 11
1.0217437 -0.25355211 0.12473603 184 11
1.020942 -0.25676072 0.12473603 184 11
1.0225292 -0.26060519 0.12503205 184 11
1.0217055 -0.26381627 0.12503205 184 11
1.0232666 -0.26767808 0.12532805 184 11
1.0224205 -0.27089146 0.12532805 184 11
1.0239553 -0.27477056 0.12562406 184 11
1.023087 -0.27798605 0.12562406 184 11
1.0222086 -0.28119877 0.12562406 184 11
1.0213201 -0.28440878 0.12562406 184 11
1.0228038 -0.28831431 0.12592009 184 11
1.021893 -0.29152617 0.12592009 184 11
1.0209721 -0.29473504 0.12592009 184 11
1.0200412 -0.29794106 0.12592009 184 11
1.0214733 -0.3018724 0.12621608 184 11
1.0205199 -0.30507997 0.12621608 184 11
1.021925 -0.3090277 0.1265121 184 11
1.0209491 -0.31223667 0.1265121 184 11
1.0223271 -0.31619883 0.12680811 184 11
1.0213841 -0.31923455 0.12680811 184 11
1.0227355 -0.32321209 0.12710412 184 11
1.0217152 -0.32642353 0.12710412 184 11
1.0206846 -0.32963175 0.12710412 184 11
1.0219957 -0.33363128 0.12740012 184 11
1.0209426 -0.33684036 0.12740012 184 11
1.0222261 -0.34085548 0.12769614 184 11
1.0211501 -0.34406525 0.12769614 184 11
1.0200642 -0.34727153 0.12769614 184 11
1.0213071 -0.35130596 0.12799214 184 11
1.0201985 -0.35451278 0.12799214 184 11
1.0214136 -0.35856226 0.12828816 184 11
1.020282 -0.36176932 0.12828816 185 11
1.0214689 -0.365832 0.12858416 185 11
1.0227045 -0.36973268 0.12888017 185 11
1.0215381 -0.37294167 0.12888017 185 11
1.0226817 -0.37703139 0.12917618 185 11
1.0214921 -0.38024238 0.12917618 185 11
1.0202925 -0.38344961 0.12917618 185 11
1.0213948 -0.38755724 0.1294722 185 11
1.0224812 -0.3916755 0.12976819 185 11
1.0235519 -0.39580449 0.13006422 185 11
1.0269099 -0.40086994 0.13065624 186 11
1.0325465 -0.40689349 0.13154426 189 11
1.0335606 -0.41107568 0.13184027 191 11
1.0391474 -0.41716337 0.13272829 196 11
1.0401232 -0.4213807 0.13302431 199 11
1.0456595 -0.4275322 0.13391235 216 11
1.0420258 -0.42984593 0.13361633 224 11
1.0429527 -0.4340938 0.13391235 199 11
1.0370253 -0.43540117 0.13332033 194 11
1.0333761 -0.43766624 0.13302431 181 11
1.0251768 -0.43791708 0.13213627 181 11
1.0215262 -0.44013071 0.13184027 183 11
1.0201384 -0.44333777 0.13184027 183 11
1.0210041 -0.4475596 0.13213627 183 11
1.0241137 -0.45281753 0.13272829 183 11
1.0294574 -0.45913282 0.13361633 183 11
1.0325177 -0.46444556 0.13420835 183 11
1.0355545 -0.46978211 0.13480037 185 11
1.0363208 -0.47408774 0.13509639 188 11
1.0370703 -0.47840273 0.13539238 190 11
1.0378028 -0.48272717 0.13568841 187 11
1.0385187 -0.48705918 0.13598441 187 11
1.0370682 -0.49014211 0.13598441 187 11
1.0355237 -0.49339563 0.13598441 187 11
1.0339686 -0.49664637 0.13598441 184 11
1.034627 -0.50099564 0.13628043 186 11
1.0330479 -0.50424355 0.13628043 184 11
1.0336754 -0.50860381 0.13657643 184 11
1.0342857 -0.51297295 0.13687244 186 11
1.0348786 -0.51735091 0.13716845 186 11
1.0354544 -0.52173769 0.13746446 186 11
1.0360128 -0.52613318 0.13776046 186 11
1.0365536 -0.53053737 0.13805649 185 11
1.0348818 -0.53379118 0.13805649 185 11
1.0331998 -0.5370397 0.13805649 185 11
1.0336955 -0.54145557 0.13835248 185 11
1.0341736 -0.54587996 0.13864851 185 11
1.0325494 -0.54894596 0.13864851 186 11
1.0329967 -0.55337995 0.13894451 186 11
1.0334265 -0.55782223 0.13924052 186 11
1.0338384 -0.56227255 0.13953653 186 11
1.0342325 -0.5667311 0.13983254 186 11
1.0346088 -0.57119751 0.14012854 185 11
1.0328093 -0.57444501 0.14012854 185 11
1.0331538 -0.57892054 0.14042456 187 11
1.0334802 -0.58340394 0.14072058 186 11
1.0337886 -0.58789504 0.14101657 186 11
1.0340791 -0.59239382 0.1413126 186 11
1.0343512 -0.59690017 0.1416086 188 11
1.0346055 -0.60141414 0.14190462 187 11
1.032711 -0.60466146 0.14190462 186 11
1.0329329 -0.60918349 0.14220062 187 11
1.0331364 -0.61371315 0.14249663 187 11
1.0333216 -0.61824977 0.14279264 187 11
1.0334886 -0.62279385 0.14308865 187 11
1.0315275 -0.62603593 0.14308865 187 11
1.0317706 -0.63041103 0.14338465 187 11
1.0318879 -0.63496763 0.14368068 187 11
1.0319861 -0.63953298 0.14397667 187 11
1.0341595 -0.64543873 0.1445687 187 11
1.0342165 -0.65002447 0.14486471 187 11
1.0342547 -0.65461695 0.14516072 187 11
1.0342743 -0.65921605 0.14545673 187 11
1.0342751 -0.66382164 0.14575273 187 11
1.0342573 -0.66843385 0.14604875 189 11
1.0342206 -0.67305243 0.14634475 189 11
1.034165 -0.67767739 0.14664076 186 11
1.0340906 -0.6823085 0.14693677 188 11
1.0339974 -0.68694603 0.14723279 188 11
1.0359361 -0.69298816 0.14782481 188 11
1.0358005 -0.697644 0.14812081 188 11
1.0376874 -0.70371908 0.14871284 188 11
1.0394243 -0.70998913 0.14930487 188 11
1.0412545 -0.71610069 0.14989689 188 11
1.0411525 -0.72062105 0.15019289 188 11
1.0429327 -0.72676027 0.15078491 190 11
1.0426642 -0.73147655 0.15108092 190 11
1.0423762 -0.73619813 0.15137692 187 11
1.0440793 -0.7423811 0.15196894 189 11
1.043748 -0.74711984 0.15226497 189 11
1.0453985 -0.75333238 0.15285698 189 11
1.0470203 -0.75956261 0.153449 189 11
1.0466211 -0.76432925 0.153745 189 11
1.0462023 -0.76910084 0.15404102 189 11
1.0457636 -0.77387738 0.15433702 192 11
1.0433272 -0.77715892 0.15433702 189 11
1.042854 -0.78193879 0.15463303 189 11
1.0423609 -0.78672338 0.15492904 191 11
1.0438119 -0.79303104 0.15552106 191 11
1.0432745 -0.79783094 0.15581708 191 11
1.0427173 -0.80263531 0.15611309 191 11
1.0440896 -0.80898082 0.15670511 191 11
1.0434875 -0.81379986 0.15700111 191 11
1.0428662 -0.81862158 0.15729713 189 11
1.0443016 -0.82482529 0.15788916 189 11
1.0417061 -0.82810009 0.15788916 63 11
1.04295 -0.83450246 0.15848117 43 11
1.0403233 -0.83777487 0.15848117 6 11
4.9912601 -4.1001143 0.7694456 6 11
5.0433125 -4.1696649 0.77950996 123 11
5.0092278 -4.1679873 0.77625388 163 11
4.9771037 -4.1677337 0.77329373 174 11
4.9639859 -4.1833491 0.77329373 192 11
4.9319143 -4.1828341 0.77033365 196 11
4.9130931 -4.1934628 0.7694456 196 11
4.8904934 -4.2007737 0.76796556 12 11
4.8791471 -4.2177439 0.76826161 47 11
8.8940382 -7.7495213 1.405867 6 11
8.8696489 -7.7774239 1.405867 146 11
8.828434 -7.7904525 1.4032029 128 11
8.7127314 -7.7861562 1.3925464 6 11
8.6974487 -7.8217988 1.3940266 10 11
8.6654778 -7.8424134 1.3928425 13 11
8.6471148 -7.9252486 1.3978746 6 11
8.6312904 -7.9607983 1.3993547 6 11
8.6404867 -8.1727896 1.4174113 78 11
8.6039915 -8.1896143 1.4156353 6 11
9.8560886 -9.6801529 1.646523 70 11
9.8326864 -9.7180548 1.6477071 69 11
7.8394203 -7.842906 1.3215041 7 11
7.8147426 -7.8674955 1.3215041 6 11
9.7066116 -9.899684 1.6524433 9 11
9.6754646 -9.9301291 1.6524433 18 11
2.0784976 -2.1341467 0.35443974 123 11
2.0700629 -2.1388757 0.35414371 186 11
2.0633333 -2.1453686 0.35414371 236 11
2.0548754 -2.1500378 0.35384771 244 11
2.048485 -2.1561282 0.35384771 248 11
2.0417025 -2.1625516 0.35384771 252 11
2.0365903 -2.1707716 0.35414371 248 11
2.0348177 -2.1826265 0.35503173 248 11
2.0326109 -2.1948419 0.35591978 244 11
2.0357497 -2.2122154 0.35769582 244 11
2.0354633 -2.2259526 0.35887986 248 11
2.0367737 -2.2415528 0.36035994 248 11
2.0380063 -2.2571833 0.36183998 248 11
2.0391603 -2.2728434 0.36332002 248 11
2.0402358 -2.288533 0.36480007 248 11
2.0412331 -2.3042519 0.36628011 248 11
2.0437851 -2.3218687 0.36805618 248 11
2.0446188 -2.3376498 0.36953625 248 11
2.0453732 -2.3534586 0.37101626 248 11
2.0444319 -2.3674123 0.37220031 248 11
2.04462 -2.3836253 0.37368035 248 11
2.0435338 -2.3976195 0.3748644 248 11
2.0435607 -2.4138813 0.37634447 248 11
2.0459385 -2.4313657 0.37812054 248 11
2.0462184 -2.4473307 0.37960055 248 11
2.0479977 -2.4652369 0.38137662 248 11
2.0481112 -2.4812584 0.3828567 248 11
2.0501454 -2.4988749 0.38463274 248 11
2.0520954 -2.5165222 0.38640881 248 11
2.053519 -2.5345576 0.38818485 248 11
2.0548468 -2.5526302 0.38996091 248 11
2.0560813 -2.5707362 0.39173698 248 11
2.0541463 -2.5849774 0.39292103 248 11
2.0552058 -2.6031389 0.39469707 248 11
2.0546458 -2.619374 0.39617711 248 11
2.0555232 -2.6375945 0.39795318 248 11
2.0547929 -2.6538785 0.39943323 244 11
2.0569949 -2.674129 0.40150532 244 11
2.0575888 -2.6924417 0.40328136 244 11
2.0580893 -2.7107835 0.40505743 244 11
2.0589671 -2.7287993 0.40683347 244 11
2.0607634 -2.7491908 0.40890557 248 11
2.0624502 -2.7696214 0.41097763 248 11
2.0640285 -2.7900898 0.4130497 248 11
2.0640352 -2.8085907 0.41482577 248 11
2.0654032 -2.829128 0.4168978 244 11
2.0637605 -2.8456736 0.41837788 244 11
2.0634785 -2.8642554 0.42015392 244 11
2.0631001 -2.8828633 0.42192999 244 11
2.0640562 -2.9035258 0.42400205 244 11
2.0629706 -2.9225464 0.42577812 244 11
2.0637095 -2.9432733 0.42785019 244 11
2.0643404 -2.9640319 0.42992228 244 11
2.0662668 -2.9868691 0.43229035 244 11
2.0652709 -3.0056469 0.43406639 244 11
2.0683565 -3.030612 0.43673047 244 11
2.0629857 -3.0432718 0.43761849 244 11
2.0658369 -3.0683079 0.44028261 244 11
2.0603085 -3.0809855 0.44117063 244 11
2.0642917 -3.1081629 0.44413072 244 11
2.0613205 -3.1250141 0.44561079 244 11
2.0636797 -3.1502004 0.44827488 244 11
2.0559189 -3.1611931 0.44886687 252 11
2.0580425 -3.1864412 0.45153099 19 11
1.6317626 -2.5397456 0.35917589 232 11
1.6237756 -2.5448596 0.35917589 198 11
1.988122 -3.1867242 0.44709083 232 11
1.9585842 -3.1612425 0.44265068 244 11
1.9408764 -3.154671 0.44087464 244 11
1.9237758 -3.1476865 0.43909857 244 11
1.9157097 -3.1555066 0.43939456 248 11
1.9006889 -3.1529872 0.43821055 244 11
1.8933115 -3.1632102 0.43880254 240 11
1.8858873 -3.1734192 0.43939456 248 11
1.875356 -3.1796532 0.43939456 248 11
1.866604 -3.1876767 0.43969059 248 11
1.8540977 -3.1892254 0.43909857 248 11
1.8416008 -3.190727 0.43850654 244 11
1.8242018 -3.1835508 0.43673047 248 11
1.8117493 -3.1849432 0.43613845 248 11
1.7956641 -3.1797934 0.43465841 248 11
1.7832513 -3.1810806 0.43406639 248 11
1.7708478 -3.1823213 0.43347439 248 11
1.7584541 -3.1835158 0.43288234 248 11
1.7460707 -3.1846638 0.43229035 248 11
1.7325159 -3.1835823 0.4314023 248 11
1.7207799 -3.1871195 0.4311063 248 11
1.7072594 -3.1859362 0.43021825 248 11
1.6960832 -3.1890888 0.42992228 248 11
1.6837522 -3.1900036 0.42933023 248 11
1.6714319 -3.1908724 0.42873824 248 11
1.6591227 -3.1916955 0.42814618 248 11
1.6479565 -3.1946821 0.42785019 248 11
1.6379035 -3.1970589 0.42755416 248 11
1.3997586 -2.7500527 0.36716813 244 11
1.3877786 -2.7477772 0.36628011 252 11
1.374723 -2.7432299 0.36509609 252 11
1.3639035 -2.7430818 0.36450407 252 11
1.3509188 -2.7384322 0.36332002 252 11
1.3401413 -2.7381964 0.362728 252 11
1.3289051 -2.7381487 0.36213601 252 11
1.3192263 -2.7400708 0.36183998 252 11
1.3095498 -2.7419577 0.36154395 252 11
1.2988199 -2.7415638 0.36095196 252 11
1.2891533 -2.7433801 0.36065593 252 11
1.2784472 -2.7429087 0.36006391 252 11
1.2677569 -2.7423975 0.35947192 252 11
1.2581091 -2.7441063 0.35917589 252 11
1.2474436 -2.7435179 0.35858387 252 11
1.2367948 -2.7428899 0.35799184 252 11
1.2271665 -2.7444918 0.35769582 252 11
1.2165415 -2.7437887 0.35710382 252 11
1.2054584 -2.7432528 0.3565118 252 11
1.1963252 -2.7445419 0.35621578 252 11
1.1862231 -2.7435153 0.35562378 252 11
1.1771077 -2.7447376 0.35532776 252 11
1.1679957 -2.74593 0.35503173 252 11
1.1564969 -2.7454052 0.35443974 252 11
1.1469181 -2.7467306 0.35414371 252 11
1.136402 -2.7457259 0.35355172 252 11
1.1268368 -2.7469821 0.35325569 252 11
1.1172749 -2.7482057 0.35295969 252 11
1.1067977 -2.7470899 0.35236764 252 11
1.0972487 -2.7482455 0.35207164 252 11
1.0863237 -2.7472429 0.35147962 252 11
1.0767889 -2.7483287 0.35118359 252 11
1.0663705 -2.7470629 0.3505916 252 11
1.0559702 -2.7457588 0.34999958 252 11
1.0464642 -2.7467399 0.34970358 252 11
1.036962 -2.7476881 0.34940755 252 11
1.0266038 -2.7462749 0.34881553 252 11
1.0171182 -2.7471554 0.34851953 252 11
1.006791 -2.7456694 0.34792751 252 11
0.99648333 -2.7441459 0.34733549 252 11
0.98619574 -2.7425842 0.34674346 252 11
0.97722578 -2.7431593 0.34644744 252 11
0.96826541 -2.7437027 0.34615147 252 11
0.95964479 -2.7467287 0.34615147 252 11
0.95020831 -2.7473807 0.34585544 248 11
0.94077736 -2.7480006 0.34555942 252 11
0.93135208 -2.7485886 0.34526342 252 11
0.92115194 -2.7467878 0.3446714 252 11
0.91174507 -2.747309 0.3443754 252 11
0.9015789 -2.7454367 0.34378335 252 11
0.89219123 -2.7458918 0.34348738 252 11
0.88280857 -2.746316 0.34319136 252 11
0.87295729 -2.7468574 0.34289533 252 11
0.86358625 -2.7472165 0.34259933 252 11
0.85422337 -2.7475429 0.34230334 252 11
0.84486729 -2.7478371 0.34200731 252 11
0.83551753 -2.7481 0.34171131 252 11
0.82617432 -2.7483311 0.34141529 252 11
0.81683838 -2.7485311 0.34111929 252 11
0.80819952 -2.7510836 0.34111929 252 11
0.79886997 -2.7512224 0.34082326 252 11
0.78954571 -2.7513306 0.34052727 252 11
0.77975315 -2.7515407 0.34023124 252 11
0.77158183 -2.7538447 0.34023124 252 11
0.76210409 -2.7513304 0.33963925 252 11
0.75393647 -2.7535799 0.33963925 252 11
0.74400485 -2.751137 0.33904719 252 11
0.73472553 -2.751061 0.33875123 252 11
0.72497863 -2.7510774 0.3384552 252 11
0.71571314 -2.7509387 0.33815917 252 11
0.70598233 -2.7508881 0.33786318 252 11
0.69781542 -2.7529716 0.33786318 252 11
0.68857014 -2.7527397 0.33756715 252 11
0.67933363 -2.7524769 0.33727115 252 11
0.6701051 -2.7521834 0.33697516 252 11
0.66088521 -2.7518589 0.33667913 252 11
0.65167433 -2.7515037 0.3363831 252 11
0.6430254 -2.7535381 0.3363831 252 11
0.63334739 -2.7532322 0.33608711 252 11
0.62415361 -2.7527864 0.33579111 252 11
0.6155023 -2.7547336 0.33579111 252 11
0.60632074 -2.7542272 0.33549508 252 11
0.59766525 -2.7561183 0.33549508 252 11
0.58849466 -2.7555528 0.33519906 252 11
0.57883227 -2.7525253 0.33460706 252 11
0.57065916 -2.7542326 0.33460706 252 11
0.56151116 -2.7510452 0.33401504 252 11
0.55286944 -2.7527938 0.33401504 252 11
0.54374725 -2.75208 0.33371904 252 11
0.535097 -2.7537754 0.33371904 252 11
0.52550977 -2.7530928 0.33342302 252 11
0.51685601 -2.7547309 0.33342302 252 11
0.50775898 -2.7538981 0.33312702 252 11
0.50040305 -2.7628129 0.33401504 252 11
0.49172112 -2.7643712 0.33401504 252 11
0.48553851 -2.7805851 0.33579111 63 11
0.49196002 -2.8726861 0.34674346 232 11
0.50062197 -2.9820018 0.35976788 199 11
0.49716607 -3.0203233 0.36420807 199 11
0.49115446 -3.0439396 0.36687216 204 11
0.48689425 -3.079814 0.37101626 212 11
0.48055559 -3.1034195 0.37368035 212 11
0.47171766 -3.1148174 0.3748644 199 11
0.41040224 -2.7600417 0.33194298 236 11
0.40103391 -2.7564018 0.33135098 244 11
0.39237234 -2.757648 0.33135098 244 11
0.38304281 -2.7539468 0.33075893 248 11
0.37438902 -2.7551365 0.33075893 248 11
0.36509812 -2.751375 0.33016694 248 11
0.35645437 -2.7525077 0.33016694 248 11
0.34828225 -2.7535548 0.33016694 248 11
0.33933827 -2.7521696 0.32987091 248 11
0.33069029 -2.753222 0.32987091 248 11
0.32176089 -2.7517805 0.32957488 248 11
0.31311423 -2.7527778 0.32957488 248 11
0.30420151 -2.7512794 0.32927889 248 11
0.29555681 -2.7522213 0.32927889 248 11
0.28690889 -2.7531364 0.32927889 248 11
0.27849779 -2.756495 0.32957488 248 11
0.26960492 -2.7548847 0.32927889 248 11
0.26094878 -2.755718 0.32927889 248 11
0.25228876 -2.7565248 0.32927889 248 11
0.24315022 -2.757345 0.32927889 248 11
0.23428403 -2.7556217 0.32898286 248 11
0.22562571 -2.7563441 0.32898286 248 11
0.21678068 -2.754564 0.32868686 248 11
0.20812577 -2.7552314 0.32868686 248 11
0.19929954 -2.7533948 0.32839087 248 11
0.19064872 -2.7540076 0.32839087 248 11
0.18199569 -2.7545929 0.32839087 248 11
0.17334118 -2.755151 0.32839087 248 11
0.16516148 -2.7556543 0.32839087 248 11
0.1569844 -2.7561324 0.32839087 248 11
0.14832897 -2.7566106 0.32839087 248 11
0.13966829 -2.7570632 0.32839087 248 11
0.13100624 -2.7574883 0.32839087 248 11
0.1223429 -2.7578862 0.32839087 248 11
0.11358575 -2.7557762 0.32809484 248 11
0.10492755 -2.7561195 0.32809484 248 11
0.096268632 -2.7564354 0.32809484 248 11
0.087608442 -2.7567244 0.32809484 248 11
0.078947388 -2.7569859 0.32809484 248 11
0.070285872 -2.7572203 0.32809484 248 11
0.061142106 -2.7574382 0.32809484 248 11
0.052478943 -2.7576168 0.32809484 248 11
0.043815255 -2.7577679 0.32809484 248 11
0.035151459 -2.7578919 0.32809484 248 11
0.026486995 -2.7579887 0.32809484 248 11
0.01782259 -2.7580585 0.32809484 248 11
0.0091576902 -2.7581007 0.32809484 248 11
0.00049269508 -2.758116 0.32809484 248 11
-0.0081893122 -2.7605863 0.32839087 248 11
-0.016861701 -2.7605469 0.32839087 248 11
-0.025056656 -2.7604859 0.32839087 248 11
-0.033286754 -2.7628815 0.32868686 248 11
-0.042010028 -2.765244 0.32898286 244 11
-0.050697215 -2.7650986 0.32898286 248 11
-0.059385199 -2.7649257 0.32898286 248 11
-0.068478614 -2.7622318 0.32868686 248 11
-0.077157967 -2.7620034 0.32868686 248 11
-0.085747726 -2.7592664 0.32839087 248 11
-0.094415598 -2.7589834 0.32839087 248 11
-0.10308285 -2.7586732 0.32839087 248 11
-0.11174875 -2.7583358 0.32839087 248 11
-0.12041389 -2.757971 0.32839087 248 11
-0.12907784 -2.7575791 0.32839087 248 11
-0.13787401 -2.759639 0.32868686 248 11
-0.1465431 -2.7591922 0.32868686 248 11
-0.15521075 -2.7587183 0.32868686 248 11
-0.16387819 -2.7582173 0.32868686 248 11
-0.17302023 -2.757658 0.32868686 248 11
-0.18185818 -2.7595775 0.32898286 248 11
-0.19052687 -2.7589924 0.32898286 248 11
-0.19919337 -2.7583802 0.32898286 248 11
-0.20805471 -2.7602155 0.32927889 248 11
-0.21645141 -2.7620609 0.32957488 248 11
-0.2246455 -2.7614067 0.32957488 248 11
-0.23331547 -2.7606864 0.32957488 248 11
-0.24221411 -2.7624118 0.32987091 248 11
-0.25089109 -2.7616374 0.32987091 248 11
-0.25956592 -2.7608354 0.32987091 248 11
-0.26848784 -2.7624762 0.33016694 248 11
-0.27742296 -2.7640879 0.3304629 248 11
-0.28610533 -2.7632029 0.3304629 248 11
-0.29505786 -2.7647576 0.33075893 248 11
-0.30402493 -2.766284 0.33105496 248 11
-0.31319258 -2.76526 0.33105496 248 11
-0.32217759 -2.7667272 0.33135098 248 11
-0.33117235 -2.7681651 0.33164695 248 11
-0.33986729 -2.7671108 0.33164695 248 11
-0.34887871 -2.7684913 0.33194298 248 11
-0.35757458 -2.7673817 0.33194298 248 11
-0.36660254 -2.7687044 0.332239 248 11
-0.37529865 -2.767539 0.332239 248 11
-0.38434249 -2.7688038 0.332535 248 11
-0.39303917 -2.7675827 0.332535 248 11
-0.40209812 -2.7687893 0.332831 248 11
-0.41031593 -2.7675843 0.332831 248 11
-0.41852552 -2.7663548 0.332831 248 11
-0.42759851 -2.7674778 0.33312702 248 11
-0.43629083 -2.7661207 0.33312702 248 11
-0.44538295 -2.7671859 0.33342302 248 11
-0.4544858 -2.7682211 0.33371904 248 11
-0.4635998 -2.7692261 0.33401504 248 11
-0.47315189 -2.7726467 0.33460706 248 11
-0.48229647 -2.773591 0.33490309 244 11
-0.49193063 -2.7744184 0.33519906 248 11
-0.50064653 -2.7728593 0.33519906 248 11
-0.57856542 -3.1396725 0.37989658 236 11
-0.58656228 -3.1280863 0.37871253 199 11
-0.59543937 -3.1213546 0.37812054 204 11
-0.60379821 -3.1121626 0.37723249 220 11
-0.55431169 -2.7702272 0.33608711 197 11
-0.56654143 -2.7854867 0.33815917 228 11
-0.57580149 -2.7861221 0.3384552 240 11
-0.58507055 -2.7867272 0.33875123 248 11
-0.59382421 -2.7848754 0.33875123 248 11
-0.60358733 -2.7853146 0.33904719 248 11
-0.61239749 -2.7859342 0.33934322 248 11
-0.62066138 -2.7841048 0.33934322 248 11
-0.62995744 -2.7845602 0.33963925 248 11
-0.63870209 -2.7825675 0.33963925 248 11
-0.64858508 -2.7853782 0.34023124 252 11
-0.65791249 -2.7857406 0.34052727 248 11
-0.66724855 -2.786072 0.34082326 248 11
-0.67599773 -2.783962 0.34082326 252 11
-0.68594587 -2.7866406 0.34141529 248 11
-0.69469708 -2.784472 0.34141529 248 11
-0.70406061 -2.7846801 0.34171131 248 11
-0.71391308 -2.7847323 0.34200731 248 11
-0.7232936 -2.7848761 0.34230334 248 11
-0.7326799 -2.7849882 0.34259933 252 11
-0.7414254 -2.7826726 0.34259933 248 11
-0.7508198 -2.7827239 0.34289533 248 11
-0.75955802 -2.7803516 0.34289533 248 11
-0.76963103 -2.7827318 0.34348738 248 11
-0.77836955 -2.7803001 0.34348738 248 11
-0.78847188 -2.7826126 0.34407938 248 11
-0.79720992 -2.7801218 0.34407938 248 11
-0.80734164 -2.7823665 0.3446714 252 11
-0.81559789 -2.7799585 0.3446714 248 11
-0.82455736 -2.7799034 0.3449674 248 11
-0.83400494 -2.7796745 0.34526342 248 11
-0.84346324 -2.7794135 0.34555942 248 11
-0.85219097 -2.7767501 0.34555942 248 11
-0.86239994 -2.778795 0.34615147 252 11
-0.87263149 -2.7808032 0.34674346 248 11
-0.88260424 -2.7802579 0.34703949 248 11
-0.89210415 -2.7798321 0.34733549 252 11
-0.90238249 -2.7817323 0.34792751 248 11
-0.91189957 -2.7812397 0.34822354 252 11
-0.92221212 -2.7830677 0.34881553 248 11
-0.93174773 -2.7825079 0.34911156 248 11
-0.94128931 -2.7819154 0.34940755 248 11
-0.95164818 -2.7836363 0.34999958 248 11
-0.96120763 -2.7829762 0.35029557 248 11
-0.96994764 -2.7799425 0.35029557 248 11
-0.97999156 -2.7790492 0.3505916 248 11
-0.98871964 -2.7759566 0.3505916 248 11
-0.99913353 -2.7775021 0.35118359 248 11
-1.0087109 -2.7766795 0.35147962 248 11
-1.0191563 -2.7781518 0.35207164 248 11
-1.0291386 -2.7797647 0.35266367 244 11
-1.0391327 -2.7813437 0.35325569 248 11
-1.0482661 -2.7805679 0.35355172 248 11
-1.0587796 -2.7818942 0.35414371 248 11
-1.0684127 -2.7808685 0.35443974 248 11
-1.07805 -2.7798092 0.35473576 248 11
-1.0886047 -2.7810252 0.35532776 248 11
-1.0982567 -2.779897 0.35562378 248 11
-1.1079143 -2.7787352 0.35591978 248 11
-1.1180546 -2.7773457 0.35621578 248 11
-1.1286622 -2.7784121 0.3568078 248 11
-1.139285 -2.7794394 0.35739982 248 11
-1.1489686 -2.778137 0.35769582 248 11
-1.1596196 -2.7790885 0.35828787 248 11
-1.1702875 -2.7800007 0.35887986 248 11
-1.1809729 -2.7808731 0.35947192 248 11
-1.1906887 -2.7794275 0.35976788 248 11
-1.2014009 -2.7802234 0.36035994 248 11
-1.2111297 -2.7787073 0.36065593 248 11
-1.2218677 -2.7794266 0.36124796 248 11
-1.2326241 -2.7801054 0.36183998 248 11
-1.2428548 -2.7782655 0.36213601 248 11
-1.2536387 -2.7788646 0.362728 248 11
-1.2649161 -2.7792044 0.36332002 248 11
-1.2747626 -2.7801654 0.36391205 248 11
-1.2851007 -2.7808714 0.36450407 248 11
-1.2954597 -2.7815387 0.36509609 248 11
-1.3063184 -2.7819417 0.36568812 248 11
-1.3182626 -2.7845433 0.36657614 248 11
-1.3291585 -2.7848611 0.36716813 248 11
-1.3400692 -2.7851381 0.36776018 248 11
-1.3499037 -2.783144 0.36805618 248 11
-1.360839 -2.7833414 0.3686482 248 11
-1.3722693 -2.7832594 0.36924022 248 11
-1.3832339 -2.7833719 0.36983225 248 11
-1.3953297 -2.78566 0.3707203 248 11
-1.4063276 -2.7856865 0.37131229 248 11
-1.4184729 -2.7878799 0.37220031 248 11
-1.4306458 -2.790025 0.37308836 248 11
-1.4416988 -2.7899191 0.37368035 248 11
-1.4539195 -2.7919691 0.3745684 248 11
-1.4638443 -2.7895823 0.3748644 248 11
-1.4749371 -2.7893503 0.37545645 248 11
-1.4860429 -2.7890763 0.37604845 248 11
-1.7725317 -3.2974064 0.44561079 248 11
-1.7858303 -3.2958696 0.44620278 248 11
-1.7961797 -3.290242 0.44620278 248 11
-1.8094833 -3.2886114 0.44679484 248 11
-1.8199326 -3.2885163 0.44738683 244 11
-1.8351159 -3.291441 0.44857088 244 11
-1.8491127 -3.2921424 0.44945893 248 11
-1.8643615 -3.2949448 0.45064294 244 11
-1.8771765 -3.2933769 0.45123497 248 11
-1.8930547 -3.2957306 0.45241901 244 11
-1.9046502 -3.2919121 0.45271501 248 11
-1.9187512 -3.2923353 0.45360303 248 11
-1.9316108 -3.2905655 0.45419508 248 11
-1.9457479 -3.2908804 0.4550831 248 11
-1.9611824 -3.293268 0.45626715 248 11
-1.9779332 -3.2977166 0.45774719 248 11
-1.9934423 -3.2999709 0.45893124 248 11
-2.0089848 -3.3021603 0.46011525 248 11
-2.0258641 -3.3063974 0.46159533 248 11
-2.0388608 -3.304234 0.46218732 248 11
-2.054497 -3.3062315 0.46337137 248 11
-2.0694156 -3.3057027 0.46425942 248 11
-2.0837822 -3.3054729 0.46514744 244 11
-2.0981655 -3.305186 0.46603546 248 11
-2.1106524 -3.3031209 0.46662748 244 11
-2.1217918 -3.2989283 0.46692351 248 11
-2.1329257 -3.2946982 0.4672195 22 11
-2.1358867 -3.2779751 0.46573943 57 11
-1.8230195 -2.7796152 0.39558509 36 11
-1.8322235 -2.7735558 0.39558509 191 11
-2.1808221 -3.2751269 0.46840355 204 11
-2.2022052 -3.284724 0.47077161 244 11
-2.225065 -3.2962723 0.4734357 244 11
-2.2382121 -3.293364 0.47402775 244 11
-2.2569923 -3.2985852 0.47580379 244 11
-2.2659297 -3.2894385 0.4755078 244 11
-2.2705715 -3.2741597 0.47432375 236 11
-2.2708595 -3.2527897 0.47225165 204 11
-2.2696044 -3.229423 0.46988359 212 11
-2.2687793 -3.2057023 0.46751553 212 11
-2.2672715 -3.1824172 0.46514744 212 11
-2.2670913 -3.1611865 0.46307537 212 11
-2.2667997 -3.1399884 0.46100327 212 11
-2.266398 -3.1188238 0.45893124 220 11
-2.2673564 -3.0996919 0.45715517 212 11
-2.2667394 -3.0785906 0.4550831 216 11
-2.2654831 -3.0579176 0.45301104 216 11
-2.2641199 -3.0372806 0.45093894 216 11
-2.264673 -3.0182669 0.4491629 216 11
-2.265132 -2.9992785 0.44738683 216 11
-2.2639866 -2.9783449 0.44531476 216 11
-2.2642465 -2.9594152 0.4435387 216 11
-2.26441 -2.9405136 0.44176266 216 11
-2.2644773 -2.9216399 0.43998659 216 11
-2.2644491 -2.9027951 0.43821055 216 11
-2.2648237 -2.8835857 0.43643448 224 11
-2.2661471 -2.8667417 0.4349544 224 11
-2.2689364 -2.8518565 0.43377036 216 11
-2.2747695 -2.8408482 0.43317837 224 11
-2.282119 -2.8317602 0.43288234 228 11
-2.2941444 -2.8284225 0.43347439 228 11
-2.307745 -2.8269565 0.43436241 240 11
-2.3229418 -2.8273454 0.43554646 248 11
-2.3381629 -2.8276675 0.43673047 248 11
-2.3550038 -2.829824 0.43821055 248 11
-2.3702803 -2.8300052 0.43939456 248 11
-2.3871889 -2.8320103 0.44087464 248 11
-2.4046223 -2.8335199 0.44235465 248 11
-2.4194939 -2.8339026 0.4435387 244 11
-2.4343808 -2.8342264 0.44472277 244 11
-2.4476657 -2.8326113 0.44561079 240 11
-2.4630907 -2.832381 0.44679484 240 11
-2.4768977 -2.8302188 0.44768286 244 11
-2.4923611 -2.8298562 0.44886687 244 11
-2.507848 -2.829423 0.45005092 244 11
-2.5250132 -2.8307693 0.45153099 244 11
-2.5410423 -2.8297491 0.45271501 244 11
-2.5582688 -2.8309369 0.45419508 244 11
-2.5755265 -2.8320451 0.45567513 244 11
-2.5928173 -2.8330715 0.45715517 248 11
-2.6101398 -2.8340175 0.45863521 248 11
-2.6274931 -2.8348832 0.46011525 244 11
-2.6431806 -2.8338559 0.4612993 244 11
-2.6588862 -2.8327591 0.46248335 244 11
-2.6763213 -2.833391 0.46396339 244 11
-2.6920707 -2.8321466 0.46514744 244 11
-2.7078404 -2.8308303 0.46633148 244 11
-2.7258444 -2.8307536 0.46781152 248 11
-2.7433882 -2.8310647 0.4692916 244 11
-2.7609596 -2.8312931 0.47077161 244 11
-2.7780664 -2.8319242 0.47225165 244 11
-2.7969451 -2.8342433 0.47402775 244 11
-2.8141127 -2.8347158 0.4755078 244 11
-2.8335593 -2.8363695 0.47728384 244 11
-2.8512802 -2.8361824 0.47876388 244 11
-2.8690271 -2.8359129 0.48024395 244 11
-2.8868032 -2.835557 0.48172396 244 11
-2.9050949 -2.8346145 0.48320407 244 11
-2.9229226 -2.8340883 0.48468408 244 11
-2.9430573 -2.8346853 0.48646012 244 11
-2.9604454 -2.8344991 0.48794022 244 11
-2.9801543 -2.835422 0.48971626 244 11
-2.999897 -2.8362496 0.4914923 244 11
-3.019676 -2.8369799 0.4932684 244 11
-3.0413067 -2.8393042 0.49534047 244 11
-3.0593336 -2.8381529 0.49682048 244 11
-3.0773833 -2.8369164 0.49830058 244 11
-3.0954552 -2.8355942 0.4997806 240 11
-3.1153896 -2.8358521 0.50155663 240 11
-3.1376932 -2.8371282 0.50362873 240 11
-3.159549 -2.838836 0.50570083 240 11
-3.1833003 -2.8420835 0.50806892 232 11
-3.20661 -2.8457668 0.51043695 232 11
-3.2299657 -2.84934 0.51280504 244 11
-3.250124 -2.8489692 0.51458108 240 11
-3.2703137 -2.8484993 0.51635712 240 11
-3.2886527 -2.8463101 0.51783723 236 11
-3.3088951 -2.8456481 0.51961327 236 11
-3.3310578 -2.8464942 0.5216853 228 11
-3.3532581 -2.8472288 0.5237574 240 11
-3.3754969 -2.8478518 0.52582943 240 11
-3.4001722 -2.8493621 0.52819753 236 11
-3.4244039 -2.8513324 0.53056562 224 11
-3.4453387 -2.8494272 0.53234172 232 11
-3.4691517 -2.8517647 0.53470975 224 11
-3.4915791 -2.8518109 0.53678185 232 11
-3.5121093 -2.8501847 0.53855789 224 11
-3.5384722 -2.8531189 0.54122198 232 11
-3.5610065 -2.8528192 0.54329401 224 11
-3.5874648 -2.8554897 0.5459581 232 11
-3.6120245 -2.8564863 0.54832619 220 11
-3.6366251 -2.8573575 0.55069429 228 11
-3.6612692 -2.8580995 0.55306238 228 11
-3.6884127 -2.8595927 0.55572647 232 11
-3.7126446 -2.8607173 0.55809456 220 11
-3.7388833 -2.8632331 0.56075865 228 11
-3.7631943 -2.8641164 0.56312668 220 11
-3.7900255 -2.8657136 0.56579077 228 11
-3.8149159 -2.8656833 0.56815886 220 11
-3.8418362 -2.8670051 0.57082295 228 11
-3.8688025 -2.8681853 0.57348704 216 11
-3.8958132 -2.8692255 0.57615113 224 11
-3.9228714 -2.8701215 0.57881522 224 11
-3.9504683 -2.8701911 0.58147937 216 11
-3.9796295 -2.872247 0.58443946 224 11
-4.0047984 -2.8712664 0.58680755 216 11
-4.0320268 -2.8715897 0.58947164 224 11
-4.063355 -2.8746302 0.59272772 212 11
-4.0988111 -2.8803465 0.59657586 220 11
-4.1323028 -2.8844531 0.60012794 228 11
-4.1679058 -2.8897855 0.60397613 199 11
-4.1953912 -2.8893101 0.60664022 197 11
-4.2167606 -2.8844969 0.60841626 197 11
-4.2345262 -2.8760612 0.60960025 197 11
-4.2517862 -2.8682778 0.61078429 196 11
-4.2669721 -2.8590381 0.61167234 194 11
-4.2924891 -2.8565867 0.61404043 194 11
-4.3180337 -2.854001 0.61640853 193 11
-4.3493419 -2.8561144 0.61966461 193 11
-4.3786163 -2.8567171 0.6226247 193 11
-4.4105139 -2.8577511 0.62588084 193 11
-4.4403749 -2.8572688 0.62884092 192 11
-4.470274 -2.8566289 0.63180101 192 11
-4.5002141 -2.8558283 0.6347611 192 11
-4.5322952 -2.8561883 0.63801724 192 11
-4.5623169 -2.8550596 0.64097732 192 11
-4.5944872 -2.855077 0.64423341 190 11
-4.625082 -2.8528173 0.64719355 190 11
-4.6573377 -2.8524873 0.65044963 190 11
-4.6896362 -2.8519816 0.65370572 192 11
-4.7262311 -2.8538616 0.65755391 188 11
-4.7586217 -2.852994 0.66080999 187 11
-4.7910528 -2.8519506 0.66406608 187 11
-4.8235245 -2.8507316 0.66732222 187 11
-4.8496041 -2.8455815 0.66969031 187 11
-4.8757 -2.8402932 0.67205834 187 11
-5.5283885 -3.1494756 0.75790125 174 11
-5.5387998 -3.1311278 0.75790125 192 11
-5.7950783 -3.2527814 0.79164636 208 11
-5.8003635 -3.2331626 0.79105437 224 11
-5.8083153 -3.2137289 0.79075837 224 11
-5.8118486 -3.1918929 0.78987032 224 11
-5.8174853 -3.171248 0.78927827 224 11
-5.8164921 -3.1470692 0.78779823 224 11
-5.8197837 -3.1252677 0.78691018 232 11
-5.8208027 -3.1023133 0.78572619 224 11
-5.8217363 -3.0793817 0.78454208 232 11
-5.8253131 -3.056613 0.78365409 220 11
-5.8260727 -3.0337253 0.78247005 228 11
-5.8245382 -3.0097277 0.78099 228 11
-5.8229108 -2.9857695 0.77950996 228 11
-5.8211894 -2.961853 0.77802992 228 11
-5.8193774 -2.937974 0.77654988 228 11
-5.8196921 -2.9152462 0.77536583 228 11
-5.817698 -2.8914433 0.77388579 228 11
-5.8178391 -2.8687758 0.77270174 228 11
-5.8201284 -2.847223 0.77181375 228 11
-5.8201032 -2.8246052 0.77062964 220 11
-5.8222342 -2.8030849 0.76974159 224 11
-5.8225269 -2.7795029 0.76855761 224 11
-5.8240161 -2.7590342 0.76766956 212 11
-5.8254323 -2.7385848 0.76678157 212 11
-5.8272495 -2.7171378 0.76589352 212 11
-5.8294601 -2.6946886 0.76500547 200 11
-5.8333821 -2.6742983 0.76441348 198 11
-5.8394933 -2.6549351 0.76411748 198 11
-5.8410106 -2.6335273 0.76322943 197 11
-5.8560591 -2.6181931 0.76411748 195 11
-5.8642564 -2.5997813 0.76411748 193 11
-5.8792167 -2.5843313 0.76500547 193 11
-5.898694 -2.5707879 0.76648557 192 11
-5.9763856 -2.5599597 0.77447778 187 11
-6.0232701 -2.557601 0.77950996 187 11
-6.0541725 -2.5482576 0.78247005 193 11
-6.1084437 -2.5472 0.78839028 191 11
-6.1278968 -2.5327158 0.78987032 181 11
-6.1615477 -2.5226882 0.7931264 195 11
-6.1874204 -2.5118327 0.7954945 195 11
-6.2068028 -2.4969966 0.79697454 36 11
-6.2362313 -2.4633994 0.79875064 187 11
-6.2458277 -2.4457824 0.79904658 192 11
-6.2669516 -2.4326067 0.80082268 196 11
-6.2861528 -2.4173455 0.80230272 199 11
-6.3030009 -2.4011059 0.80348676 204 11
-6.3174853 -2.3839087 0.80437475 204 11
-5.8270249 -2.1788769 0.74102867 220 11
-5.8315125 -2.1597002 0.74073267 228 11
-5.836308 -2.139503 0.74043661 232 11
-6.3123212 -2.2905834 0.79993463 216 11
-6.3148108 -2.2690697 0.79934263 224 11
-6.3219075 -2.2492211 0.79934263 232 11
-6.3242583 -2.2277057 0.79875064 204 11
-6.3288798 -2.2070143 0.79845464 212 11
-6.3498693 -2.1919572 0.80023068 212 11
-6.3708262 -2.1767914 0.80200672 212 11
-6.405869 -2.166261 0.80555886 220 11
-6.4432616 -2.1563187 0.80940694 220 11
-6.4759398 -2.1446095 0.81266308 220 11
-6.4968071 -2.1288674 0.81443912 220 11
-6.5176392 -2.1130183 0.81621522 24 11
-6.5145755 -2.0656595 0.81414312 198 11
-6.5162935 -2.043705 0.81355113 208 11
-6.5155654 -2.021028 0.81266308 224 11
-6.5195074 -1.9998261 0.81236708 216 11
-6.5186281 -1.9771827 0.81147903 224 11
-6.5176706 -1.9545679 0.81059104 224 11
-6.5166354 -1.9319768 0.80970299 224 11
-6.515523 -1.9094119 0.80881494 224 11
-6.5143328 -1.8868728 0.80792689 224 11
-6.5154538 -1.8650393 0.8073349 224 11
-6.5168204 -1.8420833 0.80674285 224 11
-6.5177922 -1.8202729 0.80615085 224 11
-6.5210853 -1.7991296 0.80585486 224 11
-6.5219126 -1.7773378 0.8052628 224 11
-6.5250659 -1.7561984 0.80496681 224 11
-6.5281506 -1.7350566 0.80467081 224 11
-6.531167 -1.7139126 0.80437475 8 11
-2.6827464 -0.70175451 0.32987091 193 11
-2.6801257 -0.69210011 0.32927889 216 11
-2.6798787 -0.68307382 0.32898286 248 11
-2.6796017 -0.6740554 0.32868686 255 11
-2.6792946 -0.66504538 0.32839087 255 11
-2.678957 -0.65604389 0.32809484 255 11
-2.6835332 -0.64772922 0.32839087 255 11
-2.6807203 -0.63816559 0.32779881 255 11
-2.6875501 -0.6308558 0.32839087 255 11
-2.6870978 -0.62185937 0.32809484 248 11
-2.6914606 -0.61395746 0.32839087 236 11
-2.6933763 -0.60549819 0.32839087 199 11
-2.6952651 -0.59703422 0.32839087 204 11
-2.6971276 -0.58856374 0.32839087 204 11
-2.7013931 -0.58059847 0.32868686 204 11
-2.7081633 -0.57264811 0.32927889 204 11
-2.7148147 -0.56512702 0.32987091 220 11
-2.7238779 -0.5580616 0.33075893 252 11
-2.7304888 -0.5504632 0.33135098 255 11
-2.7346413 -0.54235548 0.33164695 255 11
-2.7387702 -0.53422713 0.33194298 255 11
-2.7404349 -0.52562094 0.33194298 255 11
-2.744514 -0.5174585 0.332239 255 11
-2.7461262 -0.50883436 0.332239 255 11
-2.7501552 -0.50063944 0.332535 255 11
-2.7517145 -0.49199697 0.332535 63 11
-2.753247 -0.48334879 0.332535 236 11
-2.7548332 -0.47421941 0.332535 200 11
-2.7587602 -0.46596259 0.332831 200 11
-2.7651901 -0.45760629 0.33342302 200 11
-2.7714403 -0.4501743 0.33401504 240 11
-2.7826531 -0.44298843 0.33519906 248 11
-2.791394 -0.43536228 0.33608711 255 11
-2.7976584 -0.42732167 0.33667913 255 11
-2.8014438 -0.41888779 0.33697516 255 11
-2.8076611 -0.41078481 0.33756715 255 11
-2.8089378 -0.40196151 0.33756715 255 11
-2.8126466 -0.39346984 0.33786318 255 11
-2.8138695 -0.38463005 0.33786318 255 11
-2.81759 -0.37561935 0.33815917 255 11
-2.8236828 -0.3673844 0.33875123 255 11
-2.8272867 -0.35881519 0.33904719 255 11
-2.8308649 -0.35022637 0.33934322 255 11
-2.8344169 -0.34161857 0.33963925 255 11
-2.842876 -0.33355135 0.34052727 255 11
-2.8463771 -0.32489106 0.34082326 255 11
-2.8547888 -0.31673917 0.34171131 255 11
-2.8582389 -0.30802605 0.34200731 248 11
-5.2895975 -0.54377401 0.63328105 248 11
-5.2912798 -0.52715337 0.63328105 248 11
-5.2929101 -0.51052588 0.63328105 248 11
-5.2921004 -0.49274957 0.63298506 248 11
-5.2911506 -0.47590172 0.63268906 248 11
-5.2926984 -0.45835641 0.63268906 248 11
-5.2915616 -0.44244662 0.632393 248 11
-5.2904506 -0.42562762 0.63209701 248 11
-5.2917614 -0.40900487 0.63209701 248 11
-5.2930202 -0.39237806 0.63209701 248 11
-5.2917504 -0.37557679 0.63180101 248 11
-5.2929044 -0.35895148 0.63180101 248 11
-5.2915287 -0.34216344 0.63150495 248 11
-5.2926331 -0.32461765 0.63150495 248 11
-5.2911491 -0.30784875 0.63120902 248 11
-5.2920899 -0.29122436 0.63120902 248 11
-5.2929792 -0.27459711 0.63120902 248 11
-5.2962952 -0.25808275 0.63150495 248 11
-5.2970796 -0.24144371 0.63150495 248 11
-5.3002925 -0.22489983 0.63180101 248 11
-5.3009729 -0.20824838 0.63180101 240 11
-6.6172285 -0.21557486 0.78868628 199 11
-6.6228356 -0.19492419 0.78927827 29 11
-6.6283484 -0.17539473 0.78987032 16 11
-6.6337762 -0.15699452 0.79046232 38 11
-6.6441402 -0.13750046 0.79164636 59 11
-6.6544681 -0.11678404 0.79283041 63 11
-6.6622486 -0.095972419 0.79371846 52 11
-6.6724463 -0.0751369 0.79490244 72 11
-6.6800966 -0.054223813 0.79579049 78 11
-6.6851993 -0.03325199 0.79638255 74 11
-6.6877532 -0.012249762 0.79667854 76 11
-6.690238 0.0099320514 0.79697454 84 11
-6.6951394 0.030983577 0.79756659 97 11
-6.6950092 0.052017108 0.79756659 93 11
-6.6972947 0.073081344 0.79786259 81 11
-6.69455 0.09408085 0.79756659 10 11
-6.6942215 0.11511382 0.79756659 81 11
-6.6938267 0.13614246 0.79756659 10 11
-6.6983294 0.15729614 0.79815859 83 11
-6.7176533 0.17889892 0.80052668 90 11
-6.7195396 0.20008202 0.80082268 103 11
-6.7362442 0.22179016 0.80289477 9 11
-6.7379956 0.24304552 0.80319077 107 11
-6.7396317 0.26548648 0.80348676 117 11
-6.7189755 0.28461406 0.80111873 112 11
-6.7280192 0.30501264 0.80230272 11 11
-6.9626203 0.33673891 0.83042365 9 11
-6.9368014 0.35608789 0.82746357 99 11
-6.7348886 0.36661595 0.80348676 94 11
-6.7485719 0.38865504 0.8052628 10 11
-6.7745709 0.41155341 0.80851895 91 11
-6.7509508 0.43137339 0.80585486 90 11
-6.7470856 0.45240858 0.80555886 10 11
-6.7505832 0.47396067 0.80615085 92 11
-6.7391591 0.49442178 0.80496681 91 11
-6.7276731 0.51481748 0.80378282 12 11
-6.7119374 0.55603379 0.80230272 78 11
-6.7126307 0.57733434 0.80259871 77 11
-6.7032619 0.5989126 0.80171067 10 11
-6.7013474 0.61997092 0.80171067 74 11
-6.6968966 0.64078063 0.80141473 10 11
-6.69979 0.66231161 0.80200672 72 11
-6.7001452 0.68361425 0.80230272 70 11
-6.7053704 0.70545012 0.80319077 69 11
-6.7055883 0.72678405 0.80348676 69 11
-6.7082052 0.74840546 0.80407876 68 11
-6.7033553 0.76918954 0.80378282 14 11
-6.708529 0.81016439 0.80496681 63 11
-6.7059507 0.83123201 0.80496681 69 11
-6.7080808 0.85409677 0.80555886 76 11
-6.7053647 0.87517065 0.80555886 10 11
-6.6952024 0.89523137 0.80467081 9 11
-6.6849804 0.91523856 0.80378282 10 11
-6.6697822 0.93449342 0.80230272 123 11
-6.6569872 0.954018 0.80111873 163 11
-6.644135 0.97346985 0.79993463 186 11
-6.6410432 0.99434012 0.79993463 192 11
-6.6403403 1.0155767 0.80023068 6 11
-11.318089 1.7753139 1.3653136 46 11
-11.312455 1.8108623 1.3653136 14 11
-6.6892638 1.0877757 0.8073349 33 11
-6.7003088 1.1124104 0.80911094 56 11
-6.6992278 1.1338754 0.80940694 63 11
-6.7005248 1.1557666 0.80999899 11 11
-6.6993046 1.1772467 0.81029499 63 11
-6.7053447 1.2000513 0.81147903 43 11
-6.6991 1.2206622 0.81118304 34 11
-6.7049923 1.2435288 0.81236708 32 11
-6.6988349 1.2629566 0.81207103 29 11
-6.7072444 1.2851845 0.81355113 42 11
-6.7031736 1.306244 0.81355113 50 11
-6.7112083 1.3297302 0.81503117 69 11
-6.7094302 1.3513002 0.81532717 63 11
-6.7148771 1.3743774 0.81651115 12 11
-6.7182493 1.4191263 0.81799126 50 11
-6.7137575 1.4402256 0.81799126 47 11
-6.7164736 1.4629073 0.81887925 39 11
-6.7140079 1.4857123 0.8191753 32 11
-6.7093077 1.506798 0.8191753 9 11
-6.7093797 1.5289782 0.8197673 16 11
-6.6997075 1.5489244 0.8191753 13 11
-6.6972246 1.570534 0.8194713 13 11
-6.6898437 1.5909882 0.8191753 18 11
-6.6920495 1.6137533 0.82006335 18 11
-6.6917672 1.6359577 0.82065535 13 11
-6.7030163 1.6834468 0.82331944 63 11
-6.7097182 1.7075789 0.82479948 68 11
-6.7112269 1.7316885 0.82568753 63 11
-6.7105551 1.7540262 0.82627952 26 11
-6.7077203 1.774572 0.82657552 9 11
-6.7069058 1.7969269 0.82716757 39 11
-6.7036223 1.8186408 0.82746357 40 11
-6.702661 1.8410164 0.82805562 9 11
-6.7016253 1.8634007 0.82864755 41 11
-6.7076807 1.8878273 0.83012766 10 11
-6.7112622 1.9116263 0.8313117 9 11
-6.7195292 1.9368491 0.8330878 24 11
-6.7253213 1.9614424 0.83456779 25 11
-6.7286448 1.985388 0.83575189 10 11
-6.7247524 2.0072291 0.83604783 10 11
-6.720788 2.0290689 0.83634382 21 11
-6.7140226 2.0513411 0.83634382 24 11
-6.7122869 2.0738978 0.83693588 30 11
-6.7270527 2.1016726 0.83959997 27 11
-6.7251492 2.1242976 0.84019202 32 11
-6.7326236 2.1499681 0.84196806 89 11
-6.735281 2.1741743 0.84315211 123 11
-6.7142649 2.1906796 0.84137601 163 11
-6.6720042 2.2000458 0.83693588 186 11
-6.6815367 2.2265153 0.83900791 192 11
-6.6674552 2.2451077 0.83811992 7 11
-6.669765 2.2692549 0.83930397 14 11
-6.6860652 2.2983057 0.84226406 14 11
-6.6975622 2.3258421 0.84463215 14 11
-6.7159758 2.3559513 0.84788829 12 11
-6.7178955 2.380368 0.84907228 12 11
-6.7243996 2.4065034 0.85084832 12 11
-6.7168059 2.4276156 0.85084832 11 11
-6.7138081 2.4504149 0.85144037 10 11
-6.7060761 2.4714952 0.85144037 18 11
-6.7145548 2.4986382 0.85351241 28 11
-6.7131996 2.5235183 0.85440046 28 11
-6.7237949 2.5516734 0.85676855 36 11
-6.731513 2.5801971 0.85884058 37 11
-6.737711 2.6055546 0.86061668 28 11
-6.7456708 2.6330507 0.86268878 10 11
-6.7581391 2.6624527 0.86535287 15 11
-6.7704897 2.6919556 0.8680169 17 11
-6.7850237 2.722492 0.87097698 19 11
-6.7994328 2.7531462 0.87393713 17 11
-6.811419 2.7829769 0.87660122 21 11
-6.8159137 2.8112452 0.87837726 23 11
-6.8162107 2.8364723 0.87956131 31 11
-6.8123398 2.8586159 0.88015336 35 11
-6.8101788 2.882915 0.88104135 42 11
-6.8056521 2.9062512 0.8816334 43 11
-6.807879 2.9325466 0.88311338 58 11
-6.81001 2.9588816 0.88459349 63 11
-6.8120413 2.9852605 0.88607353 63 11
-6.8139744 3.0116816 0.88755363 63 11
-6.8203402 3.0401735 0.88962567 9 11
-6.8260589 3.069921 0.8916977 12 11
-6.8367147 3.1006093 0.89436179 70 11
-6.8449874 3.1303585 0.89672989 70 11
-6.8508887 3.1591473 0.89880198 73 11
-6.8544273 3.1869521 0.90057802 76 11
-6.8578582 3.2148142 0.90235412 79 11
-6.8589392 3.2416615 0.9038341 79 11
-6.8599181 3.268549 0.90531415 80 11
-6.8585601 3.2943966 0.90649819 84 11
-6.8571067 3.3202696 0.90768224 86 11
-6.8572049 3.3484495 0.90916234 93 11
-6.846652 3.3699763 0.90916234 95 11
-6.8315859 3.3892579 0.90857029 101 11
-6.8081861 3.402837 0.90679425 111 11
-6.7825508 3.4151855 0.90472215 123 11
-6.7474566 3.4240782 0.90146607 163 11
-6.7388749 3.446393 0.90176207 174 11
-6.7258091 3.4664066 0.90146607 183 11
-6.7280936 3.4944038 0.90324211 189 11
-6.7522469 3.5339913 0.90797824 170 11
-6.7762151 3.5737679 0.91271442 162 11
-6.797812 3.6125588 0.91715461 160 11
-6.7929888 3.6374218 0.9180426 160 11
-6.7880769 3.6622908 0.91893065 161 11
-6.7830758 3.6871641 0.91981864 164 11
-6.7801614 3.7132385 0.92100269 166 11
-6.7743263 3.7393064 0.92189074 177 11
-6.7712159 3.7654109 0.92307478 177 11
-6.7680087 3.7915304 0.92425883 177 11
-6.7647052 3.8176651 0.92544281 178 11
-6.7613025 3.8438201 0.92662692 181 11
-6.7578039 3.8699875 0.92781091 181 11
-6.752058 3.8949294 0.92869896 181 11
-6.746223 3.9198718 0.92958701 188 11
-6.7402964 3.9448192 0.930475 184 11
-6.7349725 3.9685934 0.93136305 184 11
-6.7253003 3.9898288 0.9316591 187 11
-6.7169919 4.0134859 0.93225104 187 11
-6.7064753 4.0358515 0.93254709 189 11
-6.6958852 4.0581894 0.93284309 189 11
-6.6852198 4.0805016 0.93313909 190 11
-6.6808195 4.1066961 0.93432319 190 11
-6.672102 4.1302834 0.93491513 193 11
-6.6675134 4.1564875 0.93609923 194 11
-6.6649241 4.1840296 0.93757921 194 11
-6.6643262 4.2129245 0.93935531 195 11
-6.66078 4.2416792 0.94083536 195 11
-6.6620355 4.2719865 0.94290745 196 11
