# .PCD v0.7 - Point Cloud Data file format
VERSION 0.7
FIELDS x y z intensity ring
SIZE 4 4 4 4 2
TYPE F F F F U
COUNT 1 1 1 1 1
WIDTH 1162
HEIGHT 1
VIEWPOINT 0 0 0 1 0 0 0
POINTS 1162
DATA ascii
1.4612745 -0.85166597 -0.074287392 8105 70
1.4567122 -0.87312764 -0.074597612 8205 70
1.4518424 -0.8946051 -0.074907832 8183 70
1.4610146 -0.92517656 -0.075971432 875 70
5.176568 -3.3664536 -0.27318138 4706 70
5.1847138 -3.4630141 -0.2758404 4551 70
5.1731358 -3.5478468 -0.27752444 4595 70
5.1520829 -3.6271634 -0.27876529 4573 70
5.1533427 -3.7234609 -0.28129137 4820 70
5.1506 -3.8185456 -0.28368446 4996 70
5.1431131 -3.9117 -0.28590032 4939 70
4.7118917 -3.6759026 -0.26436234 1576 70
4.7093344 -3.767771 -0.26679975 1805 70
4.7075429 -3.8620262 -0.26937014 1740 70
4.702611 -3.955513 -0.27185187 1794 70
4.7036538 -4.0559783 -0.27477679 1719 70
4.6917028 -4.1471353 -0.27703694 973 70
2.4007959 -2.1754646 -0.1429785 2245 70
2.3900249 -2.2197168 -0.14395347 3318 70
2.3683953 -2.2543883 -0.144308 4883 70
2.354856 -2.2972331 -0.14519434 3613 70
2.3667634 -2.3662136 -0.1477204 3394 70
2.361973 -2.4200993 -0.14927149 3300 70
2.3603475 -2.4785602 -0.15108848 2913 70
2.3644395 -2.5446591 -0.15334864 3358 70
2.3686016 -2.6127062 -0.15569744 3109 70
2.3674729 -2.676743 -0.15778032 2973 70
2.3696933 -2.7464347 -0.16017343 2765 70
2.366051 -2.8112278 -0.16225633 2696 70
2.3725815 -2.8902378 -0.16513692 2462 70
2.3575418 -2.9448693 -0.16659938 2308 70
2.3390558 -2.9964137 -0.16788456 2112 70
2.3608043 -3.1019981 -0.17218331 2130 70
2.040385 -2.7504566 -0.15117711 857 70
2.3477769 -3.2472386 -0.17701383 2390 70
2.2904885 -3.2513056 -0.17568433 2379 70
2.2357178 -3.2577538 -0.17453209 2453 70
2.174473 -3.2533846 -0.17284805 2433 70
2.1207607 -3.2588918 -0.17174013 2550 70
2.0544105 -3.2433207 -0.1695686 2564 70
1.9625515 -3.1840982 -0.16518123 2786 70
1.680301 -2.8026934 -0.14421937 4563 70
1.6331998 -2.801527 -0.14311145 4686 70
1.5898305 -2.8057139 -0.14231375 4645 70
1.5393771 -2.7961342 -0.14085129 4973 70
1.4978812 -2.8016002 -0.14018653 5076 70
1.4491192 -2.7922843 -0.13881272 5228 70
1.4080036 -2.7964733 -0.13814797 5264 70
1.3626206 -2.7910988 -0.13704005 5356 70
1.3201472 -2.7904532 -0.13619803 5595 70
1.2787286 -2.7910044 -0.13544464 5364 70
1.2366862 -2.7891352 -0.13460262 5755 70
1.1952772 -2.787575 -0.13380492 5746 70
1.1548589 -2.787267 -0.13309585 5876 70
1.1150002 -2.7873163 -0.13243109 5842 70
1.0753151 -2.7868094 -0.13176633 6013 70
1.0358113 -2.7857504 -0.13110158 5840 70
0.99750638 -2.7869651 -0.13056979 6175 70
0.95672661 -2.7801042 -0.12968345 6412 70
0.91908884 -2.7812016 -0.12919596 6681 70
0.88247448 -2.7846525 -0.12884143 6630 70
0.84301198 -2.7780654 -0.12804373 6455 70
0.80523717 -2.7757287 -0.1274676 5416 70
0.80178249 -2.8961191 -0.13256404 2211 70
0.7389136 -2.802382 -0.12782215 4711 70
0.69620734 -2.7782919 -0.12631537 6022 70
0.66067457 -2.7807946 -0.12604946 5948 70
0.62518549 -2.7828445 -0.12578356 6135 70
0.58974576 -2.7844431 -0.12551767 6142 70
0.55397093 -2.7836325 -0.12516312 6142 70
0.51574165 -2.7686148 -0.12418815 6478 70
0.48087248 -2.769814 -0.12396657 6353 70
0.44668746 -2.7745202 -0.12392226 6285 70
0.41157845 -2.7728755 -0.12361204 6453 70
0.37630782 -2.7688084 -0.12321319 6621 70
0.34156677 -2.7672689 -0.12294728 6639 70
0.30714101 -2.7672806 -0.12277002 6613 70
0.27315909 -2.7708414 -0.12277002 6482 70
0.2381046 -2.7620409 -0.12223822 7025 70
0.20433965 -2.7667477 -0.12232685 7279 70
0.17006452 -2.764061 -0.12210526 7717 70
0.13583688 -2.759953 -0.12183937 7982 70
0.10158767 -2.7514288 -0.1213962 8555 70
0.068088084 -2.7634542 -0.12188368 9187 70
0.03419612 -2.7660797 -0.12197232 9951 70
0.00024661972 -2.7543027 -0.12144051 10273 70
-0.033588991 -2.7570951 -0.12157346 10335 70
-0.067468815 -2.7584727 -0.1216621 10406 70
-0.10102218 -2.7494504 -0.12130757 10490 70
-0.13524236 -2.7579818 -0.12175073 10329 70
-0.1685887 -2.7481375 -0.1213962 8693 70
-0.23973225 -3.2549856 -0.1440421 5071 70
-0.2769227 -3.2199469 -0.14262396 9861 70
-0.27157941 -2.7599547 -0.12228253 8663 70
-0.3059772 -2.7613788 -0.12250412 8540 70
-0.33935234 -2.7534497 -0.12232685 8386 70
-0.37472638 -2.7609577 -0.12285865 8015 70
-0.40887207 -2.7581277 -0.12294728 7911 70
-0.44363853 -2.7588208 -0.12321319 7521 70
-0.47746009 -2.7531688 -0.12321319 7596 70
-0.51285338 -2.7559423 -0.12361204 7309 70
-0.54741305 -2.7533607 -0.1237893 7370 70
-0.5821932 -2.7513227 -0.12401089 7168 70
-0.61656827 -2.7468956 -0.12414384 6996 70
-0.65322822 -2.7517588 -0.12471996 6855 70
-0.68718988 -2.7445047 -0.12476428 7100 70
-0.72259814 -2.7426279 -0.12507449 6572 70
-0.75912833 -2.7441456 -0.12556198 6800 70
-0.79524827 -2.7432594 -0.12596083 6523 70
-0.83059102 -2.7390304 -0.12622674 6629 70
-0.86745685 -2.7391083 -0.12671421 6543 70
-0.90601492 -2.7434359 -0.12742329 6484 70
-0.94221103 -2.7396691 -0.12777781 6422 70
-0.978787 -2.7363667 -0.12817667 6414 70
-1.0185541 -2.7410066 -0.12897438 6199 70
-1.0564256 -2.7394867 -0.12950619 6212 70
-1.0933003 -2.7346659 -0.12990503 6175 70
-1.1294512 -2.7275047 -0.13021524 6212 70
-1.3469408 -3.1432064 -0.15095553 3573 70
-1.4315385 -3.2305691 -0.15600765 3722 70
-1.4802223 -3.2327428 -0.15698262 3588 70
-1.5278931 -3.2314956 -0.15782464 3740 70
-1.5757549 -3.2295628 -0.15866666 3576 70
-1.6264918 -3.2322941 -0.15977459 3116 70
-1.6738524 -3.2271681 -0.16052797 3138 70
-1.7260382 -3.2301757 -0.16172452 3197 70
-1.6759886 -3.0459409 -0.15348159 876 70
-1.8249713 -3.2224872 -0.16354151 2493 70
-1.8764468 -3.2205672 -0.16460513 2756 70
-1.9312285 -3.2230082 -0.16593462 3005 70
-1.9648719 -3.1897092 -0.16544715 1715 70
-1.9573851 -3.0919158 -0.16159157 959 70
-1.9548808 -3.0056856 -0.15831213 1162 70
-1.9522254 -2.9224842 -0.15516563 1175 70
-1.9495232 -2.8422809 -0.15215209 1181 70
-1.9474527 -2.7658606 -0.1493158 1651 70
-1.9765671 -2.7352755 -0.14896128 3395 70
-2.0325913 -2.7413113 -0.15064532 3969 70
-2.0557981 -2.7026436 -0.14989193 6419 70
-2.1053987 -2.6984806 -0.15108848 5906 70
-2.1589484 -2.698185 -0.15255094 5842 70
-2.2090037 -2.692343 -0.1537475 5787 70
-2.2637391 -2.6910279 -0.15525426 5586 70
-2.3194239 -2.6895273 -0.15680535 5323 70
-2.3787174 -2.6908042 -0.15857802 5267 70
-2.4410703 -2.6939881 -0.16052797 4983 70
-2.4984169 -2.6901851 -0.16212338 4923 70
-2.5539682 -2.6832051 -0.16358583 4802 70
-2.618789 -2.684561 -0.16562441 4623 70
-2.6811976 -2.6818986 -0.16748571 4422 70
-2.7467902 -2.6808958 -0.16952428 4064 70
-2.8134806 -2.6793714 -0.17160718 3938 70
-2.8783469 -2.6745689 -0.17355712 3905 70
-2.944994 -2.669915 -0.1755957 3770 70
-3.0119553 -2.6640241 -0.17763427 3812 70
-3.0890422 -2.6653721 -0.18024896 3709 70
-3.1597309 -2.6594334 -0.18246481 3690 70
-3.2384543 -2.6584954 -0.18512382 3541 70
-3.3145041 -2.6535227 -0.18760556 3729 70
-3.3964252 -2.6513824 -0.19039752 3601 70
-3.474016 -2.6439943 -0.19292358 3783 70
-3.5703821 -2.6487882 -0.19646893 3764 70
-3.6560464 -2.6434124 -0.19939384 3632 70
-3.7510915 -2.6426568 -0.20280623 3685 70
-3.8441882 -2.6382637 -0.20608568 3674 70
-3.9402242 -2.6336432 -0.20949808 3892 70
-4.0434141 -2.6314166 -0.21326502 4087 70
-4.1319423 -2.6174226 -0.21623424 3246 70
-4.2487903 -2.618948 -0.22066593 4300 70
-4.3645716 -2.6169643 -0.22500898 4830 70
-4.4783425 -2.6110163 -0.22921908 3851 70
-4.6760473 -2.6499541 -0.23768359 1285 70
-5.3347812 -2.937427 -0.26941445 2568 70
-5.4964008 -2.9391139 -0.27575177 8223 70
-5.4903817 -2.8498092 -0.27366886 8368 70
-5.4946036 -2.7669399 -0.27216211 8395 70
-5.493135 -2.6822069 -0.27043375 8283 70
-5.491322 -2.5983562 -0.26874971 8453 70
-5.4937329 -2.5174539 -0.26733157 8146 70
-5.4904232 -2.4348605 -0.26569185 8184 70
-5.4785743 -2.3495791 -0.26369756 8196 70
-5.4857683 -2.2733736 -0.2626783 8253 70
-5.4742975 -2.1902943 -0.26081699 8338 70
-5.4411168 -2.0999262 -0.2579807 4755 70
-5.4524312 -2.0277727 -0.25731596 5855 70
-5.4693804 -1.958016 -0.25696141 7411 70
-5.4759932 -1.884897 -0.25616372 7768 70
-5.9653835 -1.971848 -0.2779676 8071 70
-5.9672289 -1.8915505 -0.2769483 8730 70
-6.0406566 -1.8335632 -0.27929711 4812 70
-5.9993801 -1.7409176 -0.27637219 3274 70
-6.0174041 -1.6663648 -0.27623925 3525 70
-6.0364342 -1.5921416 -0.27619493 4643 70
-6.0235395 -1.5099273 -0.27473247 4361 70
-6.0250926 -1.4319674 -0.2739791 4307 70
-6.0266161 -1.3544165 -0.27327001 4127 70
-6.0261688 -1.2768372 -0.27251664 3990 70
-5.9679008 -1.1881558 -0.26919287 3181 70
-5.3780432 -1.0022271 -0.24193801 2870 70
-5.3751731 -0.93358922 -0.24127325 2652 70
-5.3635402 -0.86390173 -0.24025397 2587 70
-5.3796668 -0.79889876 -0.24051987 2649 70
-5.3682775 -0.7299934 -0.23958921 2684 70
-4.9594202 -0.61247694 -0.22093183 3630 70
-4.8692584 -0.54075658 -0.21658878 5036 70
-4.861609 -0.47958836 -0.21596834 4857 70
-4.8591657 -0.41920522 -0.21561381 4754 70
-4.8629479 -0.35947049 -0.21556948 4519 70
-4.86799 -0.29982907 -0.21561381 4690 70
-4.8623228 -0.23962544 -0.21521495 4549 70
-4.8648968 -0.1799392 -0.21521495 4594 70
-4.8587494 -0.12002783 -0.21486042 4595 70
-4.8518653 -0.060294472 -0.21450588 4437 70
-5.0080862 -0.00078748894 -0.2214193 3584 70
-5.3673391 0.0649966 -0.23737338 2122 70
-6.1171765 0.14911385 -0.27069965 2494 70
-6.0899277 0.22325648 -0.26959172 2211 70
-6.086729 0.29797247 -0.26959172 2116 70
-6.0746369 0.3721554 -0.26923719 2112 70
-6.103488 0.44916314 -0.27074397 3212 70
-6.0487437 0.51984024 -0.26857242 2102 70
-6.0419097 0.59402853 -0.26857242 2159 70
-6.0212564 0.66669887 -0.26799631 2401 70
-6.0136127 0.74066085 -0.26804063 2514 70
-5.9981313 0.81359607 -0.26777473 2581 70
-6.0025187 0.88933635 -0.26843947 2695 70
-5.9862218 0.96213722 -0.26821789 2820 70
-5.9857764 1.0375715 -0.26874971 3185 70
-5.901876 1.0977992 -0.2655589 1312 70
-5.8203492 1.1567098 -0.26250103 2717 70
-5.8184223 1.2307341 -0.26307714 3132 70
-5.7999568 1.3013865 -0.26294419 1980 70
-5.7922983 1.3745382 -0.26334304 1261 70
-5.8156981 1.4557005 -0.26520434 1467 70
-2.1542807 0.56767863 -0.098085538 4528 70
-2.1615953 0.5980655 -0.098750293 2129 70
-2.1569722 0.62538064 -0.098883241 2247 70
-2.1185412 0.64253026 -0.097465105 9000 70
-2.1076396 0.66757518 -0.09733215 9001 70
-2.08411 0.68837857 -0.096623085 3742 70
-2.0792844 0.71520102 -0.09680035 2020 70
-2.0750549 0.74234486 -0.09702193 2294 70
-2.0395668 0.75801319 -0.095781058 8998 70
-2.0282469 0.78226614 -0.095692426 9074 70
-2.0120008 0.80450183 -0.095382214 2058 70
-2.0001307 0.82836741 -0.095293574 2050 70
-1.9888965 0.85245633 -0.095249258 2156 70
-1.9581908 0.86789721 -0.09427429 7583 70
-1.9428509 0.88978291 -0.094052702 9223 70
-1.9381081 0.91654611 -0.094362922 2267 70
-1.9249189 0.9393847 -0.09427429 2306 70
-1.9114615 0.96203774 -0.094185658 2198 70
-1.8773398 0.97392505 -0.093077734 4451 70
-1.8670092 0.99783105 -0.093166366 8716 70
-1.8660029 1.0269265 -0.09374249 2169 70
-1.8515217 1.0487635 -0.09365385 2195 70
-1.8419654 1.0734169 -0.093831122 2353 70
-1.8243692 1.0933728 -0.093609534 2550 70
-1.8006067 1.1093919 -0.093077734 8876 70
-1.7986754 1.1388843 -0.093698174 2364 70
-1.7820514 1.1592374 -0.093565218 2220 70
-1.7676916 1.1810186 -0.093565218 2279 70
-1.7538896 1.2031869 -0.093609534 2230 70
-1.7185695 1.2102431 -0.092501618 6753 70
-1.7440788 1.2604929 -0.094717458 448 70
-5.7806106 4.2855592 -0.31847319 916 70
-5.6369324 4.2872343 -0.31342107 581 70
-5.4011459 4.2135363 -0.30313957 1072 70
-5.3139272 4.2514162 -0.30114532 534 70
-4.0363245 3.3114412 -0.2308588 1840 70
-3.9823864 3.3497925 -0.23010541 3797 70
-3.9092011 3.3710113 -0.22824411 3237 70
-3.7694781 3.3320618 -0.2224386 2921 70
-3.6898048 3.3431907 -0.22013412 2304 70
-3.574559 3.3195629 -0.21565813 1187 70
-5.88341 5.5993528 -0.35955492 3631 70
-3.1644568 3.0868239 -0.195361 286 70
-3.0811174 3.0802248 -0.19252473 254 70
-3.0193589 3.0934975 -0.19101796 240 70
-2.9322479 3.0789576 -0.18787146 296 70
-2.8622787 3.0803158 -0.18578857 292 70
-2.8034594 3.0922663 -0.18441474 264 70
-2.7288945 3.085283 -0.18197732 286 70
-2.6699412 3.0943363 -0.18055919 303 70
-2.6079626 3.0985901 -0.17891946 264 70
-2.53741 3.0909836 -0.1766593 274 70
-2.471813 3.0875764 -0.17470936 334 70
-2.4109893 3.0885425 -0.17306964 354 70
-2.3620145 3.1035879 -0.17227194 324 70
-2.296962 3.0962374 -0.17027767 361 70
-2.2301083 3.0845251 -0.16810615 277 70
-2.1800041 3.0945101 -0.1671755 309 70
-2.1192508 3.0880833 -0.16540281 355 70
-2.0112374 3.0092118 -0.1598189 523 70
-1.9409139 2.9825926 -0.15711558 568 70
-1.9485447 3.0762296 -0.16079387 314 70
-4.6222157 7.4981418 -0.39000058 7456 70
-4.5057054 7.5140309 -0.3879177 8537 70
-4.3849754 7.5204287 -0.38543594 8088 70
-4.2874312 7.5649819 -0.38499278 8332 70
-4.1600585 7.554894 -0.38184628 8165 70
-4.059968 7.5921612 -0.38118154 1409 70
-2.2854826 4.4033403 -0.21933642 1345 70
-2.1939757 4.3569989 -0.21565813 2518 70
0 0 0 58 70
-2.1534832 4.5513005 -0.22261587 66 70
-2.1295199 4.6473141 -0.22602826 25 70
-5.2095375 11.745942 -0.56926221 379 70
-1.9344873 4.5108795 -0.21698762 80 70
-1.8717182 4.5167441 -0.2161456 66 70
-1.7656701 4.4132323 -0.21011852 372 70
-1.7023858 4.4112678 -0.2090106 598 70
-1.6700675 4.4908156 -0.21180256 131 70
-1.5993404 4.4677072 -0.20976399 157 70
-1.1216118 3.2590165 -0.15215209 949 70
-1.0812206 3.2715867 -0.15210778 2142 70
-1.030424 3.2512779 -0.15055668 1501 70
-3.498316 11.523874 -0.53349853 2625 70
-3.3524599 11.551544 -0.53283376 3596 70
-3.2048519 11.571596 -0.53190309 3639 70
-0.87041467 3.3008201 -0.15068963 1288 70
-0.81745136 3.261833 -0.14842947 2716 70
-0.77112335 3.2453766 -0.14723292 3046 70
-0.73562193 3.2740889 -0.14811926 2842 70
-0.81635964 3.8536165 -0.17400029 640 70
-0.76471543 3.8417892 -0.17302532 722 70
-0.71897793 3.858741 -0.17337985 980 70
-0.67875433 3.9086127 -0.17524116 115 70
-1.7528462 10.879879 -0.48811808 4644 70
-1.6215507 10.91638 -0.48882714 6520 70
-1.4827538 10.900811 -0.48727605 6882 70
-1.323509 10.71295 -0.47810248 3651 70
-0.77017885 6.933506 -0.30872348 1735 70
-0.41264361 4.1835761 -0.18574426 2442 70
-0.3645398 4.2261467 -0.1874283 2492 70
-0.30896449 4.1804876 -0.18521245 3124 70
-0.43568209 7.0706339 -0.3135097 906 70
-0.35109839 7.1203494 -0.31550395 9758 70
-0.16128583 4.3617377 -0.19287926 204 70
-0.10764944 4.3593941 -0.192702 358 70
-0.053894877 4.3404083 -0.19181566 474 70
-0.00062637893 4.3367462 -0.1916384 494 70
0.051822953 4.2724948 -0.18880211 3636 70
0.10432197 4.2745337 -0.18893507 2044 70
0.15983786 4.3567929 -0.19265768 522 70
0.21304648 4.349514 -0.1924361 371 70
0.26640567 4.3465724 -0.1924361 197 70
0.55977547 7.607944 -0.3376624 602 70
0.65668434 7.6423059 -0.3395237 6998 70
0.69503194 7.0699439 -0.31439605 6269 70
0.7829473 7.071805 -0.31488353 5720 70
0.87150109 7.0765371 -0.31554827 5153 70
0.95948333 7.0742192 -0.31594715 4767 70
1.048857 7.0797 -0.31674483 4455 70
1.1359737 7.0682688 -0.31683347 1884 70
1.6672707 9.6199989 -0.43236747 6352 70
0.76140511 4.0926938 -0.18392727 2797 70
1.3842715 6.9658151 -0.31430742 75 70
1.4252138 6.7381611 -0.30477929 1126 70
1.5071381 6.7172399 -0.30464634 1161 70
1.6528698 6.9655499 -0.31683347 9426 70
1.7438011 6.967032 -0.31785277 9467 70
1.8370519 6.9750571 -0.31922659 9480 70
1.9280988 6.972209 -0.32015723 9429 70
2.004061 6.9153986 -0.31865045 4213 70
2.1093462 6.9581661 -0.32179695 6992 70
2.206634 6.9698548 -0.32356963 7875 70
2.3004537 6.9678655 -0.32476619 5087 70
2.3974783 6.9731221 -0.3263616 4349 70
2.4936314 6.9732785 -0.32777974 2903 70
2.5884085 6.9674382 -0.3289763 2862 70
1.2138067 3.147774 -0.14891696 977 70
5.2050643 13.023596 -0.62142313 1627 70
1.3044465 3.1502678 -0.15051237 1362 70
1.3426135 3.1331048 -0.15046805 1481 70
2.4018266 5.4209232 -0.26227945 2011 70
1.4586006 3.1855073 -0.15467815 1920 70
1.4040868 2.9695666 -0.14497276 1832 70
1.2231891 2.5067558 -0.12299161 885 70
1.3553227 2.6932516 -0.13300721 755 70
5.4186015 10.449016 -0.52140003 2318 70
5.410851 10.127957 -0.50863677 2778 70
5.4027987 9.8209562 -0.49649397 2914 70
5.3786936 9.4991961 -0.48350912 3048 70
5.3877544 9.2486048 -0.47406963 2605 70
5.375062 8.9718256 -0.46321201 2945 70
5.4559426 8.8584042 -0.46077457 4322 70
5.6027055 8.8515635 -0.46396539 5502 70
1.3961332 2.1463778 -0.11284304 2357 70
2.413285 3.6128671 -0.19199292 3290 70
6.7964721 9.9106455 -0.53234631 2269 70
1.4120845 2.0053084 -0.10805683 1418 70
1.4225457 1.9683937 -0.10699322 1816 70
1.4251765 1.9218963 -0.10539781 1957 70
1.4105561 1.854165 -0.10260586 1646 70
1.4037104 1.7989051 -0.10047865 1351 70
1.4063342 1.7573602 -0.099104822 1122 70
1.4081527 1.7160256 -0.097731002 1602 70
1.513983 1.7995393 -0.10358083 4118 70
1.4791976 1.7149988 -0.099725261 1676 70
1.3896472 1.5717083 -0.092324346 2056 70
1.3813303 1.5241811 -0.090507358 734 70
1.370021 1.474903 -0.088557415 1528 70
1.3811302 1.4507426 -0.088114247 1194 70
1.3716259 1.4057922 -0.086385891 1040 70
1.3661741 1.3662438 -0.084967755 1548 70
1.3656805 1.3326272 -0.083904147 1800 70
1.3638468 1.2985419 -0.082796223 1366 70
1.3738251 1.2762668 -0.082441695 1266 70
1.3775424 1.2485745 -0.081732623 1602 70
1.3748027 1.2156893 -0.080669016 700 70
1.3676846 1.1797981 -0.079383828 1773 70
1.3774741 1.1590654 -0.079117931 1316 70
1.368431 1.1230557 -0.07778842 857 70
1.3704121 1.096812 -0.077123672 1987 70
2.3900969 1.8656473 -0.1337606 3333 70
1.3738642 1.0453019 -0.075838484 1235 70
1.374554 1.0194341 -0.075173728 1383 70
1.3691511 0.98961037 -0.07419876 435 70
1.3762921 0.96928161 -0.073932856 366 70
7.8470955 5.3859801 -0.42146555 5413 70
0 0 0 446 70
7.5817189 4.934545 -0.40054798 3147 70
1.3774683 0.87224489 -0.071584068 988 70
1.363407 0.84007144 -0.07029888 1210 70
1.3650457 0.81813908 -0.069855712 1275 70
1.3568596 0.79075801 -0.068925053 806 70
1.3534245 0.76665831 -0.068260305 1538 70
1.3504794 0.74324512 -0.067639865 974 70
1.3550938 0.72426099 -0.067418285 872 70
1.3656529 0.708498 -0.067506917 2920 70
1.3974426 0.70336992 -0.068659157 1395 70
2.0154979 0.98384231 -0.098750293 6188 70
1.9777545 0.9355306 -0.096312866 3940 70
1.6249079 0.74427849 -0.078541808 3898 70
1.5106349 0.66959894 -0.072559036 3358 70
1.5297556 0.65573657 -0.073090836 3357 70
0 0 0 4328 70
1.5129248 0.60500586 -0.071539752 2206 70
1.6125022 0.62201113 -0.075927116 3225 70
1.6293771 0.60565943 -0.076370284 2702 70
1.9028592 0.68092889 -0.088911951 4017 70
1.6890908 0.58110052 -0.078497492 3746 70
1.709374 0.5647195 -0.079117931 3820 70
1.6571327 0.52498013 -0.076370284 4193 70
1.5477828 0.46948737 -0.071007945 3464 70
1.5726159 0.45602787 -0.071894281 3432 70
1.6243063 0.44949585 -0.074021488 3675 70
1.632598 0.4302938 -0.074154444 3704 70
1.7104319 0.42844996 -0.077478208 3011 70
6.0668855 1.4419031 -0.27588472 1851 70
6.1581993 1.3839977 -0.2792528 3555 70
8.4283886 1.7859933 -0.38144743 940 70
8.426156 1.6777464 -0.38038382 1620 70
8.430397 1.5712886 -0.37967476 1740 70
8.421484 1.4629275 -0.37843388 1864 70
8.5019255 1.3696449 -0.38127017 909 70
9.5892687 1.4243667 -0.42930961 1424 70
9.8208332 1.3358113 -0.43892637 2045 70
9.9574461 1.2301424 -0.44433302 4664 70
10.009522 1.1120499 -0.44601706 8244 70
10.002532 0.98717076 -0.44513074 8373 70
10.00394 0.86349046 -0.44468758 8216 70
1.4755518 0.10878377 -0.064892225 8084 70
1.4767755 0.090668298 -0.064892225 8089 70
1.4757814 0.072440647 -0.064803585 8242 70
1.3337978 0.049032558 -0.058466282 4804 70
1.3722501 0.033601873 -0.060150322 10730 70
1.3266079 0.01618476 -0.058111746 5262 70
1.3872334 -0.0012001721 -0.068710014 10473 71
1.3961024 -0.018333681 -0.069160648 10637 71
1.4097505 -0.035807461 -0.069861628 10714 71
1.4131972 -0.053251531 -0.070061907 10152 71
1.4114398 -0.070540637 -0.070011839 9945 71
1.4184427 -0.088345647 -0.070412397 9769 71
1.4321923 -0.10684722 -0.071163446 9432 71
1.4347537 -0.12475706 -0.071363725 9110 71
1.4351026 -0.14255004 -0.071463868 9059 71
1.4312599 -0.1599301 -0.071363725 6866 71
1.4837075 -0.18420476 -0.074117579 4553 71
1.4862837 -0.20307022 -0.074367926 5332 71
34.027378 -5.0479698 -1.7237239 96 71
1.4719778 -0.23805656 -0.0739173 4911 71
1.4787861 -0.25780931 -0.074417993 8377 71
1.476493 -0.27611968 -0.074468069 8366 71
1.4749525 -0.29460737 -0.074568205 8327 71
1.4741573 -0.31330562 -0.074718416 8441 71
1.4750741 -0.33246621 -0.074968763 8347 71
1.4786569 -0.35238862 -0.075369328 8534 71
1.4780965 -0.37147808 -0.075569607 8430 71
1.4782555 -0.39086121 -0.075819954 8461 71
1.4781606 -0.41030404 -0.076070309 8507 71
1.4778104 -0.42980322 -0.076320656 8389 71
1.4772035 -0.44935539 -0.076571003 8459 71
1.4763385 -0.46895713 -0.076821357 8583 71
1.4723692 -0.4876653 -0.076921493 8448 71
1.4757181 -0.50894564 -0.077422194 8831 71
1.4693615 -0.52701664 -0.077422194 7890 71
1.4721453 -0.5484879 -0.077922896 8119 71
1.4699628 -0.56830919 -0.07817325 8657 71
1.4786431 -0.59260923 -0.079024434 8473 71
1.4684913 -0.60956329 -0.078874223 8583 71
1.4709982 -0.63186628 -0.079425 8370 71
1.4695249 -0.65270311 -0.07977549 8415 71
1.4650367 -0.67235082 -0.079975769 8387 71
1.4584813 -0.69113249 -0.080075905 8368 71
1.4651488 -0.716425 -0.080927096 8567 71
1.4633837 -0.73794293 -0.081327654 8227 71
1.4621967 -0.75998479 -0.081778288 8260 71
1.4686152 -0.78634512 -0.082679547 8492 71
1.4649798 -0.80767906 -0.083030038 8499 71
1.462779 -0.83002615 -0.083480664 8360 71
1.4542091 -0.84891999 -0.083580807 8461 71
1.4591019 -0.87594336 -0.084482066 8604 71
1.454195 -0.89745015 -0.084832557 8371 71
5.1465349 -3.2603061 -0.30458981 1294 71
5.1454859 -3.348814 -0.30694309 4817 71
4.9188156 -3.2879722 -0.2957775 4077 71
4.7520909 -3.2616403 -0.28811678 3849 71
4.8619571 -3.425523 -0.29732966 4186 71
4.7256579 -3.4170632 -0.29152155 4437 71
4.9288464 -3.656847 -0.30684295 4848 71
5.1451063 -3.916014 -0.32331598 5282 71
4.6998286 -3.6691782 -0.29808071 1764 71
4.7027946 -3.7652676 -0.30118504 1868 71
4.701014 -3.8594422 -0.3040891 1744 71
4.7006803 -3.956707 -0.30719346 1295 71
4.6956353 -4.051929 -0.31009752 869 71
2.4188817 -2.1404185 -0.16108917 338 71
2.4035339 -2.1800013 -0.16184023 2457 71
2.3934312 -2.224966 -0.16299184 2946 71
2.3702874 -2.2583015 -0.16329226 5344 71
2.3695602 -2.3137228 -0.16519491 3918 71
2.3487575 -2.350395 -0.16574569 3702 71
2.3615887 -2.4219301 -0.16874988 3410 71
2.360615 -2.4811077 -0.17085283 3372 71
2.3660176 -2.5486703 -0.17350653 3122 71
2.3654172 -2.6115534 -0.17580976 3075 71
2.3682561 -2.6800377 -0.17846346 2913 71
2.3762891 -2.7565415 -0.18161787 2945 71
2.3699336 -2.8183548 -0.18377088 2884 71
2.3706522 -2.8904591 -0.1865748 2584 71
2.3680804 -2.9606595 -0.18922852 2495 71
2.3659809 -3.0335877 -0.19203244 2303 71
2.3636525 -3.1084933 -0.1949365 2200 71
2.0498574 -2.7658522 -0.17175408 934 71
2.3235145 -3.216558 -0.19809091 2370 71
2.2769661 -3.2350304 -0.19749007 2417 71
2.2105389 -3.2240222 -0.19513677 2583 71
2.1852357 -3.2724969 -0.1964386 2669 71
2.1078761 -3.2421396 -0.19303383 2597 71
2.0396109 -3.223042 -0.19038013 2608 71
1.9532741 -3.1721539 -0.18592389 2780 71
1.6795411 -2.8043995 -0.1630419 4610 71
1.6329299 -2.8040898 -0.16184023 4577 71
1.5885506 -2.8065376 -0.16083883 4780 71
1.5405056 -2.8013213 -0.15943687 4628 71
1.4970676 -2.8032794 -0.15848553 4997 71
1.4487548 -2.7948442 -0.15698344 5199 71
1.4044693 -2.7927861 -0.1558819 4981 71
1.3600157 -2.7891674 -0.15473029 5284 71
1.3192804 -2.7921042 -0.15397923 5176 71
1.2770151 -2.7908313 -0.15302791 5335 71
1.2374092 -2.7944224 -0.15237699 5482 71
1.195941 -2.7928739 -0.15147573 5505 71
1.154698 -2.7907307 -0.15057448 5592 71
1.112947 -2.7861438 -0.14957307 5774 71
1.0725621 -2.7837508 -0.14872189 5926 71
1.0344924 -2.7864053 -0.14817111 5918 71
0.99651963 -2.7885466 -0.14762034 5949 71
0.95702612 -2.7854548 -0.14681922 6016 71
0.91807264 -2.7827642 -0.14606817 6103 71
0.88083822 -2.7842999 -0.14556748 6161 71
0.84109539 -2.7767403 -0.14461614 6422 71
0.80389696 -2.7763014 -0.14406537 5854 71
0.79933733 -2.8928018 -0.14962314 2122 71
0.73730296 -2.8019543 -0.14441586 4477 71
0.69558233 -2.7817266 -0.14291376 5931 71
0.66000915 -2.7842228 -0.14261334 5707 71
0.62316656 -2.7804189 -0.14201251 5771 71
0.58631027 -2.7751546 -0.14136159 5990 71
0.55045694 -2.7733247 -0.14091097 5915 71
0.51583397 -2.7769251 -0.14076075 6033 71
0.48035187 -2.7751739 -0.14036019 6150 71
0.44499061 -2.7729709 -0.13995963 6244 71
0.41004908 -2.7722952 -0.13965921 6434 71
0.37532571 -2.7721701 -0.13940886 6458 71
0.34030044 -2.7686374 -0.1390083 6544 71
0.30563873 -2.7666492 -0.13870788 6730 71
0.27137092 -2.7672095 -0.13855767 6278 71
0.23722115 -2.7683413 -0.13845754 6843 71
0.20286402 -2.7660637 -0.13820718 7150 71
0.16865982 -2.7643573 -0.1380069 7283 71
0.13472418 -2.7662189 -0.1380069 7629 71
0.10069472 -2.7656677 -0.13790676 8014 71
0.066674545 -2.7637 -0.13775656 9112 71
0.032693289 -2.7593167 -0.1375062 9722 71
-0.001169994 -2.7704961 -0.13805698 10130 71
-0.035058048 -2.7612853 -0.13760634 10251 71
-0.068940625 -2.7606471 -0.13760634 10133 71
-0.1028863 -2.7615895 -0.13770649 10140 71
-0.13686547 -2.762114 -0.13780662 9923 71
-0.17038323 -2.7542453 -0.1375062 8323 71
-0.24162899 -3.2599277 -0.1630419 4903 71
-0.27895945 -3.2258704 -0.16148974 9704 71
-0.27340558 -2.7639985 -0.13840747 8483 71
-0.30730352 -2.7604353 -0.13840747 8479 71
-0.3420108 -2.7633951 -0.13875796 8072 71
-0.37616494 -2.7609692 -0.13885809 7827 71
-0.41119015 -2.7640486 -0.13925865 7517 71
-0.44507834 -2.7587945 -0.13925865 7576 71
-0.47975308 -2.7580454 -0.13950901 7428 71
-0.5141108 -2.7548959 -0.13965921 7356 71
-0.54963231 -2.7571957 -0.14010984 7057 71
-0.58425331 -2.7541513 -0.14031012 7146 71
-0.61822575 -2.7477491 -0.14036019 6604 71
-0.65397507 -2.7487011 -0.14081082 6483 71
-0.68935519 -2.7472506 -0.14116131 6491 71
-0.72403431 -2.7424474 -0.14136159 6333 71
-0.75949836 -2.7400939 -0.14171208 6459 71
-0.79640412 -2.7420781 -0.14231293 6404 71
-0.83231294 -2.7397444 -0.14271349 6478 71
-0.86768073 -2.7350371 -0.14301389 6185 71
-0.90744388 -2.7431502 -0.1440153 6025 71
-0.94396216 -2.7403078 -0.14446594 6050 71
-0.98155618 -2.7398021 -0.14506677 6121 71
-1.0182356 -2.735976 -0.14551741 6055 71
-1.0574843 -2.738184 -0.14631853 6188 71
-1.0958272 -2.7370565 -0.14696944 6055 71
-1.1331544 -2.7326303 -0.14747013 6009 71
-1.3566524 -3.1618981 -0.17165394 3523 71
-1.4333947 -3.2308407 -0.17636052 3778 71
-1.4820837 -3.2329843 -0.17746207 3624 71
-1.5297587 -3.2317076 -0.17841339 3725 71
-1.5771863 -3.228848 -0.17931466 3498 71
-1.6265692 -3.2288768 -0.1804162 3587 71
-1.6761887 -3.2281771 -0.18151774 3523 71
-1.7288592 -3.2320275 -0.1829197 3305 71
-1.7317924 -3.1440699 -0.17911437 744 71
-1.829316 -3.226862 -0.18512277 2883 71
-1.8783317 -3.2205658 -0.18607411 2721 71
-1.9315745 -3.2204032 -0.187426 3012 71
-1.9699003 -3.1947567 -0.18732585 1900 71
-1.9555258 -3.0859618 -0.18231885 978 71
-1.9594814 -3.0098267 -0.17921452 1047 71
-1.9513259 -2.9182885 -0.17515884 1111 71
-1.9485705 -2.8381205 -0.17175408 1268 71
-1.949898 -2.7666337 -0.16885002 1570 71
-1.9796066 -2.7368309 -0.16849953 3517 71
-2.0350552 -2.7420139 -0.17035213 4038 71
-2.0576656 -2.7025268 -0.16945086 6061 71
-2.1023493 -2.6920326 -0.1704022 6100 71
-2.1601887 -2.6972218 -0.17240499 5912 71
-2.2089646 -2.6898112 -0.17365675 5784 71
-2.2662406 -2.6915417 -0.1755594 5628 71
-2.3206265 -2.6884859 -0.17721172 5534 71
-2.3792448 -2.6889858 -0.17916444 5355 71
-2.4355383 -2.6854877 -0.18091689 5220 71
-2.4968586 -2.6861312 -0.18301983 5086 71
-2.555114 -2.6820529 -0.18487242 4939 71
-2.6220112 -2.685523 -0.18732585 4494 71
-2.6801925 -2.6785696 -0.18912837 4358 71
-2.7414536 -2.6733782 -0.19113117 4518 71
-2.81022 -2.6739697 -0.19363467 4445 71
-2.8801396 -2.6739504 -0.19618824 4327 71
-2.9512167 -2.6732836 -0.19879189 4079 71
-3.0167198 -2.6659768 -0.20099497 4046 71
-3.0877769 -2.6620271 -0.20354854 4028 71
-3.1607137 -2.658016 -0.20620225 4097 71
-3.2332392 -2.6519771 -0.20880589 4021 71
-3.3068659 -2.6451774 -0.21145959 4038 71
-3.3926165 -2.6461823 -0.21486436 4090 71
-3.4772923 -2.6442654 -0.21816897 4004 71
-3.5632262 -2.6412573 -0.22152367 3922 71
-3.655268 -2.6406281 -0.22522885 3814 71
-3.742106 -2.6341057 -0.22858354 3924 71
-3.8400321 -2.633189 -0.23258914 4173 71
-3.933507 -2.6269295 -0.23629431 4285 71
-4.03828 -2.6258471 -0.24065042 4517 71
-4.1317954 -2.6151006 -0.24430552 4202 71
-4.2460523 -2.6150234 -0.24916232 4294 71
-4.3523507 -2.6073933 -0.2535184 5053 71
-4.4677191 -2.6025705 -0.2583752 5061 71
-4.6896276 -2.6553624 -0.26934052 1423 71
-5.7376895 -3.1567488 -0.32747179 1358 71
-5.8940234 -3.1491914 -0.33418119 6035 71
-6.0164442 -3.1203237 -0.33893782 7944 71
-6.048038 -3.0431142 -0.33858734 7942 71
-6.0292783 -2.941505 -0.33548298 7720 71
-6.0071392 -2.8399646 -0.33227852 7549 71
-5.8236132 -2.6662114 -0.32026172 5321 71
-5.6458907 -2.5014527 -0.30874562 5419 71
-5.5155206 -2.3631151 -0.29998335 5718 71
-5.5071959 -2.2799642 -0.29798058 6650 71
-5.493957 -2.1958923 -0.2957775 7341 71
-5.4412861 -2.0977533 -0.29152155 4431 71
-5.4404068 -2.0210783 -0.29011959 4627 71
-5.472322 -1.9568559 -0.29052013 8097 71
-5.4723129 -1.8814317 -0.28926837 7917 71
-6.0431242 -1.9952289 -0.31820884 5079 71
-5.9767036 -1.8922638 -0.31345218 8395 71
-6.0348363 -1.8295057 -0.31530479 4612 71
-5.9657073 -1.7288829 -0.31054813 3317 71
-6.0038004 -1.6603397 -0.31144941 2823 71
-6.0217915 -1.5860295 -0.31134924 4334 71
-6.0204558 -1.5069169 -0.31029779 4500 71
-6.0219755 -1.4289997 -0.3094466 4259 71
-6.0244412 -1.3517104 -0.30869555 4269 71
-6.0239649 -1.2741627 -0.30784437 4081 71
-5.9705787 -1.1865028 -0.30433947 3107 71
-5.3749485 -0.99960673 -0.27324599 2874 71
-5.3779545 -0.93203568 -0.27279535 2872 71
-5.3830705 -0.86501759 -0.27249494 2974 71
-5.3784614 -0.79669541 -0.27174389 2939 71
-5.375957 -0.7290203 -0.27114305 3170 71
-4.9552951 -0.6100474 -0.24946274 4131 71
-4.8661208 -0.53851211 -0.24460594 5151 71
-4.8703747 -0.47856092 -0.24450581 5173 71
-4.8679204 -0.41807222 -0.24410523 5094 71
-4.8627238 -0.35756895 -0.24360454 4959 71
-4.8617611 -0.29756257 -0.24335419 5136 71
-4.8620539 -0.23773178 -0.24320398 5047 71
-4.8636069 -0.17801222 -0.24315391 4986 71
-4.8524456 -0.11799597 -0.242503 5020 71
-4.8585215 -0.058501504 -0.24275336 4908 71
-5.0356512 0.0011205761 -0.25161573 4544 71
-5.8611598 0.073033497 -0.29302365 3327 71
-6.0655017 0.1499981 -0.30333805 5681 71
-5.9963336 0.22195831 -0.29998335 4165 71
-5.9951534 0.29562381 -0.30008352 4286 71
-5.9910741 0.36917129 -0.30008352 4301 71
-5.9920688 0.44310388 -0.30038393 4182 71
-5.9861803 0.51660246 -0.30038393 4253 71
-5.9843597 0.59051251 -0.30063426 4050 71
-5.9905601 0.66544622 -0.30133525 4049 71
-5.9868989 0.73952067 -0.30158561 3805 71
-5.9843006 0.81387419 -0.30193609 3793 71
-5.9867053 0.88915431 -0.302587 3700 71
-5.9763298 0.96271211 -0.30263707 3683 71
-5.973906 1.0376856 -0.30313778 3908 71
-5.8212962 1.0849605 -0.29602784 1460 71
-5.8173394 1.1582633 -0.29652855 2973 71
-5.8456793 1.2386643 -0.29873163 6193 71
-5.8758397 1.3205903 -0.30108491 5637 71
-5.7989445 1.3782902 -0.29798058 2941 71
-5.8784761 1.4736139 -0.30298758 3114 71
-2.1523623 0.56851959 -0.11076882 5310 71
-2.1538868 0.59728682 -0.11121945 2068 71
-2.1406395 0.62200445 -0.11091903 2054 71
-2.1108632 0.64155889 -0.10976742 5647 71
-2.1085441 0.66922373 -0.11006784 9176 71
-2.0868962 0.69066268 -0.10936686 2073 71
-2.0744858 0.71492064 -0.10916658 2025 71
-2.0636756 0.73965096 -0.10906644 2100 71
-2.0216777 0.7527411 -0.10731399 5080 71
-2.0057652 0.77497756 -0.1069635 3710 71
-2.0109417 0.80546635 -0.10776462 1979 71
-1.9926015 0.82664341 -0.10731399 2167 71
-1.9813893 0.85063994 -0.10726392 2145 71
-1.9507138 0.86598688 -0.10616238 3891 71
-1.9508364 0.89485061 -0.10676322 2454 71
-1.9333882 0.91573399 -0.10641273 2211 71
-1.9202101 0.93851459 -0.10631259 2216 71
-1.9067641 0.96110982 -0.10621245 2204 71
-1.8806418 0.97707731 -0.10541133 2927 71
-1.8649865 0.99819893 -0.10521105 3250 71
-1.8613466 1.0258256 -0.10571175 2243 71
-1.84688 1.0476055 -0.10561161 2209 71
-1.834748 1.0706936 -0.10566168 2244 71
-1.8223275 1.0936415 -0.10571175 2656 71
-1.7909133 1.1049198 -0.10466028 9117 71
-1.7940955 1.1374999 -0.10566168 2385 71
-1.7800015 1.1594306 -0.10566168 2338 71
-1.764809 1.1806319 -0.10561161 2339 71
-1.7460701 1.1993748 -0.10536126 2574 71
-1.7287709 1.2189864 -0.10521105 9236 71
-5.072104 3.6674626 -0.31295151 437 71
-5.0435629 3.7419226 -0.31400296 399 71
-5.211874 3.9668117 -0.32752186 384 71
-5.3478351 4.1748648 -0.33928832 778 71
-5.3094568 4.2507854 -0.34013951 1041 71
-4.027782 3.3069599 -0.26042807 2855 71
-3.9777265 3.3484221 -0.25982723 3776 71
-3.9023046 3.3676276 -0.25757408 3666 71
-3.7604241 3.326611 -0.25086468 3132 71
-3.6763964 3.3336062 -0.24796063 3341 71
-3.5737443 3.3213727 -0.24375474 1315 71
-5.8778296 5.5976133 -0.40608171 3858 71
-3.175909 3.1004858 -0.22167388 424 71
-3.1008983 3.1025028 -0.21907024 367 71
-3.0005133 3.0767033 -0.214614 366 71
-2.9418707 3.0915928 -0.21311191 425 71
-2.8697221 3.0908751 -0.21060841 366 71
-2.8040764 3.0955181 -0.20855553 345 71
-2.7361064 3.0960271 -0.20630239 378 71
-2.6613748 3.0870206 -0.20349847 342 71
-2.6065726 3.0995781 -0.20219664 361 71
-2.5442626 3.1019945 -0.20029399 320 71
-2.481041 3.1017931 -0.19829118 379 71
-2.4071507 3.0863397 -0.19538713 391 71
-2.3678858 3.1140571 -0.19528699 316 71
-2.3003397 3.1035731 -0.19283356 345 71
-2.2304866 3.0878589 -0.19012977 348 71
-2.1728723 3.0872355 -0.18842739 298 71
-2.1167421 3.0873141 -0.18682516 306 71
-2.0176587 3.0217116 -0.18131745 449 71
-1.935219 2.9767594 -0.17716165 635 71
-1.9455662 3.0745363 -0.1815678 308 71
-4.6207051 7.5009084 -0.44083029 6399 71
-4.4939065 7.4996519 -0.43747559 6621 71
-4.3738747 7.5067763 -0.43472174 6635 71
-4.2499185 7.5042701 -0.43151727 6793 71
-4.1271687 7.5007353 -0.42836285 6887 71
-3.9943216 7.4750681 -0.42405683 1938 71
-2.2762594 4.3896871 -0.24705938 1213 71
-2.1818039 4.3370013 -0.24255307 2173 71
-2.1568935 4.4217882 -0.24580762 25 71
-2.1404755 4.5282774 -0.25026384 12 71
-2.1121967 4.6141324 -0.25356847 22 71
-5.1068473 11.523221 -0.63104624 524 71
-1.9263102 4.4965935 -0.24440566 125 71
-1.8637227 4.5023623 -0.24345434 485 71
-1.760489 4.4052677 -0.23699529 446 71
-1.6983888 4.4060402 -0.23589376 655 71
-1.6549802 4.4555712 -0.23744594 220 71
-1.6032071 4.4840078 -0.23789656 132 71
-1.121762 3.2642727 -0.17220472 1540 71
-1.0794268 3.2711544 -0.17185423 2117 71
-1.0361869 3.2746332 -0.17135352 1207 71
0 0 0 621 71
-3.0870128 10.648619 -0.55498987 2918 71
0 0 0 1281 71
-0.87731487 3.3331211 -0.17195436 922 71
-0.81183398 3.2457864 -0.1668973 2368 71
-0.76963413 3.2457871 -0.16639659 2981 71
-0.73193383 3.2647321 -0.1668973 2277 71
-0.81449109 3.8528802 -0.1965888 655 71
-0.76344657 3.8439739 -0.19563748 872 71
-0.71749741 3.8599257 -0.19598797 925 71
-0.68202996 3.9373229 -0.19949287 141 71
-1.7117362 10.644684 -0.5396685 2948 71
-1.5796616 10.655997 -0.53921783 3782 71
-1.4479706 10.668641 -0.53891742 3851 71
-1.3039794 10.580537 -0.53360999 5229 71
-0.7662105 6.9189377 -0.3481507 6368 71
-0.41207603 4.1954932 -0.21050827 2745 71
-0.36278835 4.2261062 -0.21181008 3166 71
-0.30729902 4.1814337 -0.20935665 3476 71
-0.43210179 7.0508761 -0.35330793 1166 71
-0.34892705 7.1244779 -0.35676274 9430 71
-0.15954724 4.362577 -0.21801877 224 71
-0.1056072 4.3482313 -0.21721765 288 71
-0.052804545 4.3951383 -0.21952087 675 71
0.0011350223 4.3734832 -0.21841933 615 71
0.05353193 4.2692785 -0.21321204 3774 71
0.10633481 4.2852731 -0.21406324 2253 71
0.16181611 4.3624935 -0.21801877 571 71
0.21533842 4.3601794 -0.21801877 460 71
0.26876709 4.3562117 -0.2179687 263 71
0.56033099 7.5817504 -0.38029566 369 71
0.4992975 5.7851772 -0.29026979 2744 71
0.6957255 7.052844 -0.35445952 2563 71
0.78596443 7.0775256 -0.35616192 5979 71
0.8738575 7.0762687 -0.35661253 5237 71
0.9621067 7.0758986 -0.35716331 4942 71
1.0522366 7.0862813 -0.35831493 4901 71
1.1359441 7.0531144 -0.35731351 2098 71
1.6690303 9.6129065 -0.48829666 7421 71
0.76288646 4.0912299 -0.20780449 3427 71
1.3856232 6.960485 -0.35496023 56 71
1.4225365 6.7143164 -0.34324384 3350 71
1.5102944 6.7207165 -0.34449559 1736 71
1.6570327 6.9727879 -0.35846514 9580 71
1.7495117 6.9800243 -0.35991716 9598 71
1.8385988 6.9715505 -0.36061814 9536 71
1.9325355 6.9792657 -0.36222038 9705 71
2.0224867 6.9703722 -0.36302149 9499 71
2.1122203 6.9593649 -0.36377254 7138 71
2.2107339 6.9748139 -0.36597562 8102 71
2.3083766 6.9841447 -0.36792836 2155 71
2.4020312 6.9789019 -0.36918011 4938 71
2.486819 6.9470191 -0.36907998 2459 71
2.5924122 6.9712133 -0.3720341 4831 71
1.2152711 3.1472576 -0.16829926 999 71
5.2127957 13.032491 -0.70284665 2954 71
1.3062834 3.1506264 -0.17015184 1416 71
1.3078612 3.04807 -0.16544527 1199 71
1.3297881 2.9970942 -0.1635426 749 71
1.3227987 2.8852062 -0.15828526 984 71
2.0793066 4.3936944 -0.24285349 872 71
1.2241209 2.5054171 -0.13895823 669 71
1.3558054 2.690932 -0.15022399 511 71
5.4311528 10.465859 -0.59028924 1882 71
5.4160571 10.130651 -0.575068 3412 71
5.4003158 9.8096809 -0.56054765 2981 71
5.3932858 9.5184679 -0.54762959 2736 71
5.3935189 9.2522383 -0.53606343 3453 71
5.3849669 8.9823246 -0.52419686 3795 71
5.4670205 8.8705015 -0.52154315 5604 71
5.6144681 8.8643427 -0.52519822 4975 71
5.7614927 8.8542166 -0.52875322 2943 71
2.4229529 3.6241615 -0.21771835 2966 71
1.4095564 2.0524373 -0.1239873 2646 71
1.4076087 1.9966065 -0.12163401 1813 71
1.9959879 2.7594957 -0.16990149 1344 71
2.027916 2.7323873 -0.16975129 1765 71
1.4027385 1.8417022 -0.11522505 1536 71
1.4000412 1.7920676 -0.11317218 1385 71
1.4044535 1.7529185 -0.11177022 1170 71
1.4296602 1.7401839 -0.11207064 1183 71
1.5126361 1.795874 -0.11687736 4569 71
1.3923508 1.6123089 -0.1059621 1976 71
1.3683679 1.5457191 -0.10265748 1260 71
1.3845505 1.5258507 -0.1024572 1723 71
1.3610274 1.4633768 -0.099352859 1164 71
1.3637323 1.4306509 -0.09825132 1018 71
1.377001 1.409519 -0.097950898 2043 71
1.3878384 1.3861588 -0.097500265 1119 71
1.370433 1.3355428 -0.095096909 1788 71
1.384549 1.3165588 -0.094946697 1714 71
1.3676734 1.2688798 -0.092693545 2266 71
1.3646414 1.2352325 -0.091441795 712 71
1.3849342 1.2230245 -0.091792285 2237 71
1.3756385 1.1850612 -0.090190046 1540 71
1.3809069 1.1603743 -0.089589208 1458 71
1.3811462 1.1319361 -0.088687949 1820 71
1.3684214 1.0936829 -0.086985566 976 71
1.3864635 1.0804946 -0.087285988 1925 71
1.3694152 1.0404181 -0.085383326 705 71
1.3748599 1.0181801 -0.0849327 750 71
1.3751096 0.99245566 -0.084181644 1580 71
6.9070415 4.8632078 -0.42265487 384 71
7.1482034 4.9029551 -0.43372035 647 71
7.1654806 4.7865672 -0.43116677 596 71
7.304884 4.7511077 -0.43602356 819 71
1.3692524 0.865655 -0.080376327 1812 71
7.4303355 4.5772171 -0.43667448 1408 71
7.6418543 4.5791435 -0.44578722 1842 71
1.3708491 0.79757053 -0.078673944 1332 71
1.3596777 0.76887292 -0.07747227 435 71
1.3445116 0.7386449 -0.076070309 651 71
1.356998 0.72397339 -0.076270588 2241 71
1.3648936 0.70680642 -0.07622052 925 71
1.3993351 0.70302683 -0.077672549 1322 71
1.8198267 0.8868832 -0.10065468 3788 71
1.7113974 0.8081153 -0.094045438 4722 71
1.4905487 0.68140751 -0.081327654 3387 71
1.6741048 0.74077737 -0.090941094 4093 71
1.5242635 0.65209919 -0.082278989 3416 71
1.4786336 0.61117607 -0.079374924 2850 71
1.4915863 0.59521013 -0.079675347 2965 71
1.4885283 0.57290715 -0.079124577 2951 71
1.744464 0.64716607 -0.092443198 3680 71
1.4795712 0.52812862 -0.077922896 3908 71
1.7059892 0.5856393 -0.089589208 3547 71
1.9008169 0.62669528 -0.09950307 3902 71
1.7255604 0.54540575 -0.089889631 4700 71
1.4817212 0.44822472 -0.076771289 3118 71
1.6367483 0.47340578 -0.08458221 4119 71
1.6010443 0.44182956 -0.082429193 3459 71
1.6246951 0.42698577 -0.083380528 3340 71
1.7102237 0.42715994 -0.087536335 3089 71
6.0802784 1.4428471 -0.3124508 1249 71
6.1443014 1.3786287 -0.31485415 2850 71
6.4167533 1.3573256 -0.3279725 558 71
8.4125996 1.6723062 -0.42916396 1249 71
8.3068075 1.5455422 -0.422755 424 71
8.4235525 1.4605654 -0.42776203 1690 71
8.5433912 1.3735883 -0.4329693 1539 71
8.6742039 1.2856462 -0.43877742 1055 71
9.9105644 1.3449945 -0.5005638 1824 71
10.0195 1.2347696 -0.50527036 8766 71
10.006104 1.1086389 -0.5038684 8440 71
9.9980822 0.98370892 -0.50281698 8428 71
10.005421 0.86060023 -0.50261664 8364 71
1.4791826 0.10790973 -0.073516734 8240 71
1.4803954 0.089749761 -0.073516734 8253 71
1.2449679 0.059956659 -0.061650146 6182 71
1.3613859 0.048941281 -0.067458265 4656 71
1.3678747 0.032378491 -0.067758687 6380 71
1.383149 0.015774295 -0.068509735 7302 71
1.3208537 0.0016568643 -0.074056596 827 72
1.3487275 -0.01488607 -0.075643994 6569 72
1.3943559 -0.032547969 -0.078251868 7038 72
1.4796561 -0.05278866 -0.083127446 6003 72
1.4778996 -0.070893675 -0.083070755 6112 72
1.4759218 -0.088963538 -0.083014056 6038 72
1.4806932 -0.1075074 -0.08335422 6143 72
1.4802572 -0.12575501 -0.083410911 6264 72
1.479596 -0.14400811 -0.083467603 6344 72
1.4777174 -0.1621542 -0.083467603 6221 72
1.4785892 -0.18064152 -0.083637677 5948 72
1.4802184 -0.19930863 -0.08386445 5806 72
1.4460568 -0.2127807 -0.082050279 4412 72
1.3684187 -0.21848074 -0.07774163 3207 72
1.4777819 -0.25467852 -0.084204607 4184 72
1.4686558 -0.27169946 -0.08386445 5000 72
1.4750037 -0.29164621 -0.08443138 8072 72
1.4742442 -0.31034419 -0.084601454 8132 72
1.4751958 -0.32950422 -0.084884919 8185 72
1.4749271 -0.3485038 -0.085111693 8104 72
1.4734449 -0.36730403 -0.085281774 8217 72
1.4746196 -0.3868826 -0.085621931 8125 72
1.4716855 -0.40548131 -0.085735314 8157 72
1.4733118 -0.42545491 -0.086132161 8070 72
1.4727572 -0.44495019 -0.086415626 8122 72
1.4709936 -0.46419454 -0.086642399 8051 72
1.4689789 -0.48346239 -0.086869165 8086 72
1.4667122 -0.50275052 -0.087095939 8462 72
1.4641929 -0.52205569 -0.087322712 7615 72
1.4595481 -0.54067934 -0.087436095 7557 72
1.477025 -0.56788379 -0.08891011 8334 72
1.4690179 -0.58559602 -0.088853419 8101 72
1.4700238 -0.60701495 -0.089363649 8135 72
1.4698062 -0.62815315 -0.089817196 8181 72
1.4674643 -0.64856833 -0.090157352 8146 72
1.4684734 -0.67068219 -0.090724282 8083 72
1.4673538 -0.6920647 -0.091177821 8145 72
1.466827 -0.71395785 -0.091688059 8141 72
1.4624149 -0.73414725 -0.091971517 8168 72
1.4586139 -0.75479513 -0.09231168 8162 72
1.4642127 -0.78063369 -0.093275458 8337 72
1.4606466 -0.80191088 -0.093672305 8199 72
1.4637285 -0.82715219 -0.094522692 8198 72
1.4638209 -0.85108143 -0.095203012 8221 72
1.4618318 -0.8741107 -0.095769934 8171 72
1.4560961 -0.89512461 -0.096110091 8268 72
1.4551258 -0.91933209 -0.096790411 1120 72
4.6697435 -3.0343664 -0.3152844 2493 72
4.6396284 -3.0964322 -0.31579465 1838 72
4.6432767 -3.1819267 -0.31868598 1677 72
4.6626649 -3.2800395 -0.32276785 1816 72
4.6568646 -3.362148 -0.32520565 2018 72
4.6529546 -3.4469821 -0.32787022 2253 72
4.6238151 -3.5140944 -0.328834 3800 72
5.1487594 -4.0138679 -0.36976618 6805 72
5.1006751 -4.0779963 -0.36987957 2848 72
5.0741787 -4.1599088 -0.37163705 1807 72
5.1419549 -4.3221011 -0.38048112 4217 72
5.1399508 -4.4292021 -0.38433623 5428 72
4.768744 -4.2122965 -0.36035517 57 72
2.39834 -2.1706474 -0.18273668 1940 72
2.3890829 -2.2162175 -0.1840973 2507 72
2.3703864 -2.2536268 -0.18477762 4639 72
2.3711448 -2.3104262 -0.18704532 3335 72
2.3652122 -2.3619332 -0.18885949 3309 72
2.3702264 -2.4257836 -0.19163744 3002 72
2.3588738 -2.4742043 -0.19316815 2747 72
2.3650403 -2.5424528 -0.19622956 2890 72
2.3671985 -2.6082609 -0.1990642 2657 72
2.3634615 -2.6692655 -0.20150198 2553 72
2.3637984 -2.7366126 -0.20439331 2354 72
2.3673344 -2.80971 -0.20768151 2079 72
2.3643579 -2.8771272 -0.21051614 1847 72
2.3619511 -2.9472268 -0.21352085 1708 72
2.3563311 -3.0153334 -0.2163555 1630 72
2.363301 -3.1020105 -0.22049408 1591 72
2.0573051 -2.7700038 -0.19498232 615 72
2.2197585 -3.0668526 -0.2140311 1850 72
2.2607517 -3.2056649 -0.221798 1742 72
2.1455209 -3.1228738 -0.21420117 2132 72
2.1819551 -3.2610109 -0.2218547 2011 72
2.1118133 -3.2415228 -0.21873659 1979 72
2.0638595 -3.2545443 -0.21788621 2095 72
1.9582628 -3.173399 -0.2107996 2244 72
1.6793423 -2.7973545 -0.18432407 4222 72
1.6303006 -2.7927418 -0.18267998 4172 72
1.5845817 -2.7925618 -0.18137604 4311 72
1.5405595 -2.7943065 -0.1802422 4376 72
1.4972055 -2.7962747 -0.17916504 4753 72
1.4494355 -2.7887411 -0.17752093 4887 72
1.407019 -2.7902687 -0.17650047 4912 72
1.367852 -2.7974567 -0.17587684 4961 72
1.3201778 -2.7860575 -0.17411937 5232 72
1.2808965 -2.7911575 -0.17343906 5291 72
1.2380456 -2.7875011 -0.17224851 5323 72
1.1962659 -2.7850513 -0.17117135 5352 72
1.1566459 -2.7866099 -0.17037764 5381 72
1.1153133 -2.7829828 -0.16930048 5735 72
1.0756835 -2.7824895 -0.16845009 5882 72
1.0372791 -2.7842517 -0.16776977 5942 72
0.99899405 -2.7854919 -0.16708946 5989 72
0.9575845 -2.7767737 -0.16584222 6172 72
0.91936177 -2.7759931 -0.16510522 6240 72
0.8825103 -2.7785008 -0.16459498 6270 72
0.8445757 -2.7767024 -0.16385798 6331 72
0.80626196 -2.7724757 -0.16300759 5964 72
0.80310416 -2.8937693 -0.16958395 2202 72
0.7402721 -2.8001153 -0.16351782 4395 72
0.69881034 -2.7809055 -0.16187373 6047 72
0.66116667 -2.7747021 -0.16102333 6026 72
0.62487638 -2.772866 -0.1604564 6059 72
0.58893806 -2.7715356 -0.15994617 5904 72
0.55390728 -2.773658 -0.15966271 6146 72
0.5187301 -2.774358 -0.15932256 6338 72
0.48276427 -2.7696946 -0.15869893 6362 72
0.44794488 -2.7704818 -0.15841547 6326 72
0.41332585 -2.7718201 -0.1581887 6434 72
0.37833738 -2.7697587 -0.15779185 6595 72
0.34382954 -2.7702296 -0.15756507 6583 72
0.3094776 -2.7712636 -0.15739499 6478 72
0.27436659 -2.7639234 -0.15677138 6252 72
0.23974045 -2.7591248 -0.15631783 6977 72
0.20608501 -2.7648461 -0.15648791 7121 72
0.17189439 -2.7631807 -0.15626115 7312 72
0.13802227 -2.7660794 -0.15631783 7574 72
0.10362294 -2.7555923 -0.15563752 7756 72
0.06972529 -2.7536623 -0.15546744 8830 72
0.035865478 -2.7493188 -0.15518399 9395 72
0.0021237512 -2.7475555 -0.15507059 9590 72
-0.031581212 -2.746376 -0.1550139 9832 72
-0.065256923 -2.7447839 -0.15495721 9889 72
-0.098752625 -2.7387877 -0.15467374 9686 72
-0.13245165 -2.7393639 -0.15478712 9531 72
-0.16703221 -2.7534766 -0.15569422 8712 72
-0.23707676 -3.2450922 -0.18381384 4367 72
-0.27500382 -3.2200541 -0.1825666 8363 72
-0.26972988 -2.7603672 -0.15654461 8704 72
-0.30424184 -2.7628033 -0.15688476 8258 72
-0.33812279 -2.758862 -0.15688476 8380 72
-0.37222087 -2.7564836 -0.15699814 8128 72
-0.4071885 -2.7596095 -0.15745169 7852 72
-0.44149736 -2.7573621 -0.15762177 7685 72
-0.47496045 -2.7497692 -0.15750839 7907 72
-0.51031041 -2.7525678 -0.15801862 7450 72
-0.54560584 -2.7539322 -0.15847217 7393 72
-0.58121794 -2.755821 -0.1589824 7273 72
-0.61608446 -2.7533519 -0.15926586 7174 72
-0.65028667 -2.7475274 -0.15937924 6895 72
-0.68516546 -2.7441831 -0.15966271 6953 72
-0.72158474 -2.7461891 -0.16028634 6818 72
-0.75709218 -2.7438636 -0.16068318 6690 72
-0.79376191 -2.744915 -0.1613068 6864 72
-0.83028156 -2.7445226 -0.16187373 6703 72
-0.86600703 -2.7407901 -0.16227058 6459 72
-0.90270418 -2.7394376 -0.16283751 6406 72
-0.93949807 -2.7375956 -0.16340443 6425 72
-0.9790706 -2.7427828 -0.1644249 6378 72
-1.0150878 -2.7371132 -0.16482176 5996 72
-1.0536262 -2.737493 -0.16561545 6012 72
-1.0919555 -2.7364101 -0.16635245 6015 72
-1.130798 -2.7357192 -0.16714616 5858 72
-1.330941 -3.1107686 -0.19118389 3140 72
-1.4256153 -3.2220037 -0.19912089 3234 72
-1.4746026 -3.2251472 -0.20042482 3001 72
-1.5247334 -3.2293756 -0.20184214 3188 72
-1.5730003 -3.228369 -0.202976 2810 72
-1.6219194 -3.2275534 -0.20416655 2852 72
-1.6687565 -3.2215889 -0.20507364 2698 72
-1.7203938 -3.2237649 -0.20654765 2611 72
-1.6308841 -2.9679589 -0.19135398 1063 72
-1.8073518 -3.1953437 -0.20751143 1680 72
-1.8660228 -3.2065716 -0.20972244 1945 72
-1.9298557 -3.2245438 -0.21244369 2449 72
-1.9650928 -3.1938176 -0.21199015 1332 72
-1.9566243 -3.0943758 -0.2069445 818 72
-1.9656085 -3.025768 -0.20393978 942 72
-1.9499227 -2.9225395 -0.19855396 1035 72
-1.9489441 -2.8448665 -0.19486894 1099 72
-1.9440598 -2.7644002 -0.19095713 1331 72
-1.9667296 -2.7249579 -0.18987997 2969 72
-2.0243945 -2.7335045 -0.19220437 3584 72
